# .PCD v0.7 - Point Cloud Data file format
VERSION 0.7
FIELDS x y z normal_x normal_y normal_z curvature
SIZE 4 4 4 4 4 4 4
TYPE F F F F F F F
COUNT 1 1 1 1 1 1 1
WIDTH 397
HEIGHT 1
VIEWPOINT 0 0 0 1 0 0 0
POINTS 397
DATA ascii
0.0050378279 0.11147013 0.038217362 0.11767289 0.61933899 0.77625531 0.012019092
-0.0017800516 0.111977 0.038480517 0.009817726 0.63124746 0.77551937 0.011651932
-0.010317364 0.11145816 0.03847304 -0.10988514 0.61454988 0.78118742 0.010490922
0.024260024 0.1123862 0.029683866 0.48231944 0.5808863 0.65569735 0.023740781
0.022977561 0.12051811 0.022244344 -0.4545545 -0.673343 -0.58308607 0.029107664
0.031234693 0.11107949 0.022948019 0.69869828 0.5008586 0.51084375 0.02556596
0.026557308 0.11539359 0.024695612 0.57134604 0.57971042 0.58094716 0.027231865
0.026092557 0.12145212 0.017011555 -0.52423775 -0.70799047 -0.47320637 0.03332863
0.033610191 0.11096888 0.018097747 0.78803247 0.49021521 0.37241623 0.021019582
0.014770336 0.12012292 0.028277606 0.27679849 0.67324704 0.68565375 0.019003199
0.007264453 0.12121321 0.029476246 0.1543252 0.68175542 0.71511769 0.017485054
0.016704615 0.11424455 0.032582719 0.34224597 0.61162066 0.71329367 0.019749515
0.0079615684 0.11517907 0.03465911 0.18536659 0.62937629 0.75466859 0.01425817
0.017118821 0.12334227 0.024246156 -0.32868716 -0.68998849 -0.64488804 0.018548392
0.0077516232 0.12622687 0.024113873 -0.10400606 -0.75658172 -0.64557481 0.018530913
0.020918788 0.11844228 0.026742429 -0.39925632 -0.65794826 -0.63851267 0.020821564
-0.0018640752 0.12146901 0.030007049 -0.0010885063 0.69734412 0.71673566 0.015827101
-0.010783453 0.12113467 0.029852103 -0.10221913 0.69785613 0.70890629 0.013551721
-0.0019789899 0.11637888 0.034861255 -0.0061904257 0.67799956 0.73503625 0.014186782
-0.011869531 0.11584713 0.034814149 -0.12803136 0.65736061 0.74262035 0.011462576
-0.0016355034 0.12648685 0.02477454 0.0099485889 -0.7538026 -0.65702558 0.016143989
-0.011708625 0.12549305 0.024762297 0.11497258 -0.76113194 -0.63832551 0.01225788
0.01625862 0.12772861 0.018851278 -0.30709699 -0.75129521 -0.58416349 0.02180977
0.0070018438 0.13035709 0.017941115 -0.10901047 -0.81273037 -0.57235134 0.018516297
0.0014243963 0.13062468 0.016670004 -0.044549208 -0.85885447 -0.51027876 0.017719122
-0.013918994 0.12944095 0.019688858 0.13501863 -0.80044436 -0.58400244 0.0077314759
-0.016889477 0.11057448 0.038174886 -0.14921676 0.59828705 0.78726548 0.012341244
-0.075612828 0.13144822 0.042995505 0.12350011 0.31572857 0.94077796 0.077121809
-0.067848988 0.14036854 0.035825226 0.28265709 0.5405547 0.79240495 0.068433017
-0.07233797 0.14046131 0.036889683 0.050943673 0.61539525 0.78657067 0.071221761
-0.067240544 0.13450572 0.038071346 0.36078835 0.36156812 0.85970938 0.065969706
-0.072591163 0.13445933 0.0407007 0.19261682 0.41809222 0.88774866 0.066087626
-0.077793762 0.13083334 0.043045748 -0.19332834 0.37084705 0.90834826 0.0834172
-0.078280695 0.13927191 0.036481109 -0.25673032 0.60072285 0.75711399 0.078667775
-0.079167858 0.13379693 0.03939905 -0.3842448 0.43895385 0.81220406 0.083151318
-0.084275953 0.13221973 0.036796641 -0.53031468 0.40182686 0.7465263 0.075756684
-0.069051057 0.12368558 0.042325381 0.30847007 -0.02439386 0.95092124 0.076168187
-0.07433825 0.12566447 0.043966435 0.22363845 0.1101934 0.96842307 0.087894469
-0.067986898 0.11999474 0.042623445 0.2236637 -0.031231938 0.97416586 0.072614826
-0.073285408 0.11927754 0.043444797 0.14121892 -0.12947764 0.98147476 0.075418986
-0.06432794 0.12550955 0.039611202 0.40422484 0.16221681 0.90015996 0.062893003
-0.070675284 0.12828937 0.041613001 0.30051509 0.21625975 0.92893618 0.076947436
-0.064496025 0.11822464 0.040789854 0.36194521 -0.029594503 0.9317295 0.073634207
-0.071329601 0.11448016 0.042426217 0.0046773609 -0.20607375 0.97852528 0.085701004
-0.079057947 0.12694228 0.042862073 -0.15669344 0.050298683 0.98636568 0.13162975
-0.077645272 0.12051015 0.04308011 -0.065279402 -0.17247239 0.98284888 0.097176358
-0.081649229 0.12531775 0.040729266 -0.39451042 0.085417092 0.91491282 0.14539754
-0.082556605 0.12619144 0.037864797 0.72024775 -0.0019149336 -0.69371426 0.10558565
-0.079366252 0.11908469 0.040838066 -0.39980221 -0.30047512 0.86595201 0.098376304
-0.082366601 0.12079665 0.037717514 0.69277245 0.28569853 -0.66215003 0.079021066
-0.060806122 0.14791213 0.025412839 0.54830092 0.58162993 0.60089332 0.045272425
-0.059342168 0.1496816 0.02314977 0.59958619 0.54052854 0.59019089 0.042072359
-0.03758008 0.17127533 -0.002476834 0.43596655 0.23096935 0.8698197 0.011320568
-0.038812049 0.17141734 -0.0018970598 0.43596655 0.23096935 0.8698197 0.011320568
-0.037430145 0.16869797 -0.001809944 0.43845898 0.24224979 0.86548758 0.011155593
-0.034000162 0.15660955 0.00019617029 0.42699876 0.2592884 0.86628032 0.011085477
-0.051685289 0.15490508 0.01166875 -0.37306616 -0.66366035 -0.64836454 0.11521871
-0.042686515 0.16533552 9.164834e-05 0.29668027 0.32847223 0.89670891 0.04619474
-0.048697345 0.15975527 0.0018392478 0.15295096 -0.87023205 -0.46829715 0.087422565
-0.041834127 0.1567705 0.0056145359 0.35985407 0.50049675 0.78740591 0.064577103
-0.051151589 0.15732363 0.0071022455 0.04192131 -0.84310901 -0.53610611 0.11901841
-0.065806545 0.146551 0.02796519 -0.37363705 -0.72962826 -0.57274592 0.068007752
-0.071721129 0.14651509 0.029571582 -0.0065137311 -0.85039967 -0.52609688 0.091042027
-0.064923294 0.14993276 0.023587167 -0.34211299 -0.76279616 -0.54872644 0.075290769
-0.071860209 0.14923619 0.024577308 0.035790954 -0.89750403 -0.43955147 0.082545109
-0.077566162 0.14814214 0.028660815 0.18567035 -0.76985234 -0.61061764 0.085851066
-0.080178551 0.14921506 0.02346836 0.2570709 -0.83658755 -0.48377252 0.098639384
-0.085666709 0.15016684 0.020611709 0.51702946 -0.69659024 -0.49743596 0.078618728
-0.057158712 0.15615575 0.010645932 -0.15709698 -0.81871581 -0.55229062 0.11141659
-0.057680547 0.15588212 0.0065061003 0.11373387 -0.8869822 -0.44757921 0.10757075
-0.086846285 0.15034018 0.017978011 0.59075159 -0.6750921 -0.44188592 0.075274825
-0.059532329 0.14354296 0.027707506 0.63967335 0.49188656 0.59064847 0.0324402
-0.055796258 0.1348629 0.031001419 0.63753128 0.4014183 0.65758437 0.029010549
-0.056628697 0.14534424 0.02409379 0.66039169 0.47728041 0.57972944 0.030753136
-0.044931464 0.13373989 0.02388886 0.57259858 0.47331235 0.66940743 0.043483946
-0.051345661 0.13697144 0.025828285 0.64955395 0.46070194 0.60484165 0.02705613
-0.018046759 0.12101692 0.029397966 -0.11858995 0.69904584 0.70517468 0.011323816
-0.021474322 0.11557978 0.034174133 -0.13441634 0.62904519 0.76565945 0.01345583
-0.031927608 0.11594585 0.03322297 -0.014087499 0.60928369 0.79282719 0.024621796
-0.021451168 0.12515581 0.025484359 0.077855945 -0.71375352 -0.69605631 0.014436301
-0.032270268 0.12571369 0.025910644 0.040649533 0.64689153 0.7614978 0.037220325
-0.02493874 0.12153685 0.029461207 -0.074595854 0.6384058 0.76607668 0.02261183
-0.031726193 0.12131464 0.029461613 0.013500646 0.60002166 0.79986984 0.032175589
-0.0533676 0.12661704 0.034327004 0.55352497 0.29517493 0.77876943 0.047311455
-0.041462094 0.11641129 0.034179211 0.14717306 0.54078138 0.82818812 0.048249457
-0.051481303 0.11735728 0.035976496 0.34704155 0.34802443 0.87088525 0.084251225
-0.041381035 0.12698935 0.027136791 0.28741351 0.54423326 0.78816473 0.047986303
-0.04694197 0.12821005 0.029694637 0.4871361 0.41242683 0.7698068 0.055294752
-0.041731574 0.12185259 0.031165792 0.22793992 0.49679124 0.83740187 0.051194228
-0.04620821 0.12216952 0.032521158 0.33192149 0.44083953 0.83395964 0.060905717
-0.034874503 0.15219595 0.0028688945 0.4000814 0.32900316 0.85538983 0.011050788
-0.049073938 0.14856958 0.015459447 0.61295998 0.47038981 0.63483346 0.056578562
-0.043733098 0.13536711 0.021298256 0.56357783 0.51989323 0.64194316 0.042176221
-0.046369042 0.14059043 0.018925743 0.63601667 0.46857947 0.61311996 0.02982847
-0.041204359 0.15102592 0.0084604174 0.44260383 0.46865806 0.7645008 0.07577759
-0.045677889 0.14918694 0.01216437 0.46561748 0.52869534 0.70970529 0.095104702
-0.023202993 0.12957808 0.021183487 0.061218172 -0.72448695 -0.68656462 0.018630935
-0.031075528 0.12979582 0.022159001 0.086522147 0.66422284 0.74251056 0.033585999
-0.039211854 0.13232708 0.021453427 0.36201349 0.62707347 0.68972826 0.042160571
-0.064145453 0.14233868 0.031637445 -0.37986648 -0.66195446 -0.64615613 0.069044754
-0.071303293 0.14464207 0.033272266 0.056236353 -0.74214482 -0.66787612 0.090879656
-0.061935727 0.13567211 0.03394613 0.51566344 0.41257188 0.75091654 0.04958399
-0.080530137 0.14390856 0.032131717 0.34040305 -0.7042281 -0.62304783 0.069237866
-0.084964044 0.14149107 0.030509714 -0.54182565 0.56815571 0.61937392 0.075220712
-0.085033797 0.13563053 0.033669602 -0.63029879 0.42104658 0.65226007 0.085612573
-0.083914243 0.14809737 0.025664501 0.41587862 -0.67878354 -0.6052255 0.081990115
-0.087498076 0.14514183 0.024013331 0.599365 -0.60086077 -0.52889311 0.079587907
-0.090522975 0.13740472 0.023619514 0.83743829 -0.39895567 -0.37353921 0.041048095
-0.06023236 0.12863463 0.036884915 0.56732845 0.22739369 0.79147363 0.036724083
-0.059565339 0.11517284 0.038903989 0.38543317 0.03995759 0.92187017 0.096576244
-0.085208438 0.12782235 0.033739872 0.79925638 0.018439755 -0.60070729 0.090743996
-0.08451394 0.11907021 0.034414019 0.78066444 0.27059498 -0.56333065 0.056547139
-0.088571891 0.12723604 0.02433412 0.98223698 0.0055691008 -0.18756214 0.032540843
-0.089554667 0.1214656 0.023365444 0.95846736 0.17396791 -0.22599886 0.037022378
-0.089047298 0.14403716 0.018882114 0.85550749 -0.39907065 -0.32992363 0.057507411
-0.090016939 0.13636443 0.019563654 0.91693038 -0.30719319 -0.25469792 0.067936212
-0.090394251 0.11677075 0.018476645 0.97302675 0.15164368 -0.173848 0.026890738
0.02273044 0.10103605 0.038070418 0.50281471 0.41356805 0.75903809 0.019581579
0.029945968 0.09118858 0.03666117 0.66852713 0.26316732 0.69556773 0.01998728
0.024834221 0.094912969 0.039730944 0.55534303 0.31636077 0.76909685 0.020738583
0.030500179 0.086195044 0.037517689 0.68989187 0.14443283 0.70935768 0.016609881
0.025627078 0.086122967 0.041862585 0.60831445 0.17175651 0.77488917 0.017727133
0.031442385 0.078443393 0.038340449 0.68491936 0.046459738 0.72713614 0.012916171
0.026228467 0.076900467 0.042503081 0.59586823 -0.0083137657 0.80303919 0.011544916
0.013101581 0.091854446 0.046977445 0.31902048 0.3249816 0.89028811 0.015402107
0.0065195379 0.093133107 0.048219744 0.21383001 0.35489106 0.91012585 0.013195558
0.016300358 0.10378104 0.040468533 0.33646476 0.47703019 0.81193203 0.012979121
0.007722971 0.10568093 0.041967783 0.18990222 0.53444922 0.8235904 0.0099210078
0.017287968 0.095942698 0.04454156 0.37900043 0.38776055 0.84023833 0.012240153
0.0081246952 0.098294623 0.045925651 0.21248548 0.42110801 0.88176978 0.012080964
-0.0020935426 0.093649469 0.049323581 0.014709663 0.40807289 0.91283083 0.012518906
-0.01050768 0.093146294 0.048499949 -0.16157922 0.34831131 0.92334795 0.021494947
-0.0018917779 0.10647395 0.042781387 0.020904174 0.54329693 0.83928031 0.008098226
-0.011736929 0.10630776 0.042148381 -0.1313765 0.54449922 0.8284086 0.0094834259
-0.0017763535 0.10041858 0.046115294 0.023302684 0.47980443 0.87706596 0.0088642659
-0.012429204 0.099863432 0.045509037 -0.14759682 0.46463111 0.87311691 0.012163091
0.014749631 0.08512485 0.047826443 0.38654721 0.18224758 0.90408355 0.017576186
0.0070295976 0.085752569 0.050451044 0.21595369 0.22992487 0.948946 0.018965026
0.015850427 0.076883912 0.048628278 0.43199903 0.017121604 0.90171152 0.010410881
0.0071345675 0.07684993 0.051339023 0.22967833 0.00071241322 0.9732663 0.016817112
0.018866519 0.087369189 0.045741908 0.45317811 0.21215217 0.86580658 0.020105239
0.020521162 0.075795546 0.04634165 0.51263499 -0.019862156 0.85837686 0.010396491
-0.0018651767 0.085463509 0.05148197 0.013015783 0.25019464 0.96810806 0.024630571
-0.010753724 0.085444845 0.050657582 -0.18028951 0.20103961 0.96284932 0.032039985
-0.0019614093 0.076799676 0.052016292 0.00081376074 0.010941464 0.9999398 0.022176905
-0.01037499 0.077130854 0.051022787 -0.24247873 -0.026972983 0.9697817 0.034618337
0.031781904 0.067740902 0.038164299 0.61560321 -0.083823219 0.78358555 0.016204506
0.027056582 0.067075431 0.041477524 0.5897525 -0.13303556 0.79655105 0.012337563
0.025725389 0.058238521 0.041052032 0.54586035 -0.21585512 0.80959439 0.010338374
0.022839325 0.047937475 0.039212637 0.48882261 -0.31899503 0.81196958 0.011377362
0.014474739 0.06793391 0.048409373 0.38329628 -0.14569432 0.91206205 0.011434312
0.0069515901 0.067684576 0.050681576 0.24104793 -0.17282411 0.95500141 0.014872925
0.012843583 0.059640683 0.047613133 0.36567289 -0.2419883 0.89873523 0.012582364
0.007018635 0.05791704 0.04897866 0.25428644 -0.24258746 0.93621027 0.015734944
0.019329706 0.066362843 0.046226978 0.50514644 -0.16541757 0.84703249 0.0075676022
0.017236598 0.057311643 0.045511059 0.47852081 -0.27237716 0.83476257 0.0097200945
0.011647379 0.053750958 0.046343938 0.32922399 -0.29471833 0.89708006 0.014364638
-0.0018070068 0.067306787 0.051968619 0.0047683143 -0.13005766 0.99149495 0.017298361
-0.01077695 0.067302592 0.050995734 -0.24204372 -0.10026799 0.96507055 0.033278517
-0.0017879941 0.057374433 0.050275657 -0.020677775 -0.1847634 0.98256546 0.040596258
-0.01119632 0.057304136 0.049450401 -0.19295737 -0.074983232 0.97833788 0.047830027
-0.015368761 0.052575383 0.048305884 -0.23618113 -0.078705229 0.96851635 0.044500206
0.0056670289 0.051297765 0.047179017 0.21522532 -0.31040376 0.92591983 0.022529237
0.017287433 0.047290474 0.041879471 0.45303342 -0.35960907 0.81574631 0.010087133
0.0081387525 0.046263527 0.04480378 0.33156389 -0.39024124 0.85893959 0.019095931
0.01584434 0.041313652 0.03977862 0.44890597 -0.38827592 0.8048138 0.010271103
0.0070654685 0.040892214 0.042580947 0.32214114 -0.41842651 0.84920216 0.019902321
-0.0018850652 0.050679568 0.048525255 0.082680188 -0.25216657 0.96414524 0.036070149
-0.012073453 0.046692993 0.048897929 -0.18442927 0.039188098 0.98206425 0.055201791
-0.013540792 0.039693046 0.048915874 -0.14466049 0.039617874 0.98868787 0.057076491
-0.0020585277 0.044941552 0.047330651 0.10921733 -0.25329006 0.96120536 0.036619775
-0.011709007 0.046871901 0.048959233 -0.18442927 0.039188098 0.98206425 0.055201791
-0.0020539479 0.039949536 0.046171982 0.15656756 -0.27890754 0.94746882 0.02435407
-0.0091115814 0.040034823 0.047188532 -0.018883366 -0.20011233 0.97959095 0.04993283
0.041753162 0.093420297 0.021452265 0.84075791 0.26780814 0.47053692 0.011601851
0.031718634 0.10301744 0.029232442 0.6846568 0.4010838 0.60858595 0.02352844
0.025927903 0.10532677 0.033548985 0.58359092 0.45265117 0.6741873 0.019826217
0.032941122 0.095296189 0.032060508 0.74387425 0.2749263 0.60915238 0.021099802
0.028772011 0.097679213 0.035208981 0.6242767 0.35689697 0.69491231 0.020742217
0.034093063 0.1050271 0.024788333 0.74654025 0.42477715 0.51209575 0.024392528
0.029982327 0.10885213 0.026907055 0.63843131 0.49170375 0.59214264 0.025601661
0.038517613 0.09625008 0.025174316 0.81350166 0.29641673 0.50035203 0.015412179
0.043175776 0.086195938 0.023576928 0.80630523 0.22282627 0.54792368 0.018966248
0.051283829 0.071522735 0.018422827 0.75768179 0.21452938 0.61635655 0.0292733
0.045701656 0.076720364 0.024017511 0.77051848 0.20820786 0.60245395 0.023814889
0.035179343 0.085920997 0.033013757 0.7453205 0.19359432 0.6379801 0.018202426
0.036527969 0.076415025 0.0343583 0.7114917 0.11207069 0.69370002 0.020565834
0.040503137 0.086775154 0.026997851 0.78798246 0.21246696 0.57787663 0.018852247
0.042063065 0.076685913 0.028330049 0.75019592 0.15697937 0.6423111 0.026958304
0.043805335 0.096204594 0.015236695 0.8677755 0.29161772 0.40239882 0.011216272
0.045427363 0.097147204 0.0090291668 0.89645362 0.29832587 0.32767761 0.012275923
0.038447868 0.10553899 0.017083783 0.80778199 0.41304991 0.42056867 0.01811224
0.040801041 0.099512622 0.016584678 0.86646879 0.33088097 0.373831 0.012628839
0.046890158 0.087926403 0.016399978 0.8435179 0.2895163 0.45239133 0.018780252
0.052858643 0.071993381 0.016158085 0.76550889 0.21874909 0.60509914 0.032053828
0.050241228 0.074199378 0.018665262 0.75799435 0.21921885 0.61431885 0.027292913
0.049534652 0.087605573 0.011327825 0.84261954 0.30455983 0.44411215 0.025368242
0.018209536 0.10805529 0.036839359 0.41178453 0.51990938 0.74841684 0.015937688
0.010528537 0.10957559 0.038257528 0.24924588 0.56707811 0.78504711 0.013486096
0.04385097 0.057771381 0.027530238 0.58833414 -0.1296545 0.79815578 0.032706421
0.052095246 0.065575674 0.020116504 0.6988948 0.13321334 0.70270926 0.040862825
0.046743162 0.06694673 0.024768488 0.68131459 0.030252362 0.73136532 0.039950736
0.053102594 0.057479508 0.021019859 0.60468864 -0.046391632 0.79510975 0.04176658
0.047786638 0.057231594 0.024647379 0.59797549 -0.10087835 0.7951408 0.039341304
0.035868015 0.067216784 0.034815039 0.6210742 -0.10971592 0.7760343 0.01949347
0.031403162 0.065060265 0.037861716 0.61090124 -0.13017468 0.78093165 0.017228499
0.037346285 0.056678161 0.032256626 0.59901977 -0.15588799 0.78541344 0.021777174
0.029914053 0.055199895 0.037453603 0.55590588 -0.22152124 0.80118471 0.015004221
0.042164907 0.066374123 0.028686618 0.66028726 -0.020205803 0.7507413 0.038663905
0.041451517 0.060876973 0.02965463 0.60870063 -0.10528007 0.78638387 0.025952367
0.042246811 0.050466828 0.027503923 0.57741898 -0.12152769 0.80735266 0.029801911
0.053767506 0.050241038 0.020629508 0.52228284 -0.044575263 0.85160655 0.051976051
0.046910927 0.047639892 0.023908533 0.57358736 -0.11307381 0.8113026 0.037279241
0.037462752 0.048530106 0.030715527 0.55600607 -0.19952637 0.80687451 0.021952586
0.028138466 0.047014017 0.036117934 0.53390121 -0.29351267 0.79296899 0.010809719
0.025964605 0.040116679 0.03470673 0.52314758 -0.32458538 0.78801078 0.0091353748
0.038468495 0.043501832 0.028298583 0.52649802 -0.27961516 0.80287933 0.014811456
0.033316508 0.04255284 0.031231577 0.52077961 -0.29377341 0.80155212 0.012773932
0.037949834 0.039594341 0.027231652 0.52567589 -0.28443626 0.80172372 0.017356299
0.032223005 0.038081586 0.029979896 0.51664537 -0.31497106 0.79616004 0.014157483
0.056772791 0.067149967 0.014913918 0.70757502 0.20480151 0.67630905 0.040626936
0.048540279 0.071967259 0.021509014 0.73695731 0.18611507 0.64981157 0.029769683
0.059340194 0.057731375 0.017976727 0.52077168 0.036679491 0.85290766 0.048516992
0.056288283 0.049216501 0.020551851 0.42759931 0.011473567 0.90389556 0.052098013
0.051912416 0.044934615 0.021685405 0.49073866 -0.044953797 0.87014639 0.044785596
0.022719325 0.047980465 0.039309647 0.49025962 -0.30998006 0.81459063 0.011122732
0.021093123 0.039947119 0.036547542 0.46069708 -0.38648093 0.79899353 0.011092726
-0.018302578 0.092292376 0.047314692 -0.23461463 0.30357864 0.92346954 0.022504596
-0.021259541 0.10559469 0.041150641 -0.18415409 0.53238481 0.82622862 0.010476575
-0.03083365 0.10341099 0.040195204 -0.16372807 0.45643151 0.87456471 0.023766011
-0.02242567 0.097560659 0.044845037 -0.24042627 0.40943274 0.88009095 0.021513795
-0.0316834 0.09670572 0.043007761 -0.18503772 0.33942291 0.92225438 0.032953169
-0.043323871 0.10382047 0.04002101 0.067091241 0.32480776 0.9433974 0.046463773
-0.052324884 0.10384658 0.039632566 0.1252733 0.14179608 0.98193711 0.061207641
-0.041781779 0.09668225 0.041596081 -0.1067462 0.29972056 0.94803631 0.027052328
-0.051830057 0.096638858 0.040923703 -0.033422306 0.12330931 0.99180532 0.043040015
-0.018957069 0.085742548 0.0483681 -0.3646163 0.13384794 0.92148775 0.035063151
-0.025647875 0.083050229 0.046471838 -0.33426955 0.0090890154 0.94243366 0.035896767
-0.018960644 0.077636033 0.049421366 -0.39143631 -0.071822055 0.91739804 0.024197116
-0.02515622 0.089191824 0.046184439 -0.28901923 0.14950949 0.94557643 0.038409371
-0.03189525 0.08703547 0.044176236 -0.29651457 0.061546195 0.9530431 0.038150072
-0.025669096 0.074880317 0.047215991 -0.35915545 -0.09512382 0.92841738 0.023059661
-0.032885186 0.076572098 0.044745725 -0.33321518 -0.11938617 0.93526179 0.025349066
-0.041740816 0.08696232 0.042684678 -0.13503817 -0.013508691 0.99074829 0.02868928
-0.05122133 0.087097868 0.041053247 -0.15342483 -0.064522937 0.9860515 0.022300379
-0.041715715 0.0768677 0.041792735 -0.2498899 -0.17257702 0.95277083 0.028967494
-0.050970338 0.077802405 0.039382793 -0.22952621 -0.24173586 0.94280511 0.0266093
-0.061440941 0.10398867 0.040133063 0.098246269 -0.056543596 0.99355447 0.09294273
-0.071807899 0.11106635 0.040607266 -0.2157221 -0.32612589 0.92038357 0.10157217
-0.061492622 0.097213216 0.040557757 -0.10363913 -0.13808098 0.98498356 0.059433848
-0.069086015 0.096947588 0.038561746 -0.31472737 -0.24109749 0.91805154 0.067351453
-0.076902531 0.11331733 0.038662162 -0.49728739 -0.33851051 0.79882157 0.096169971
-0.060314536 0.087804966 0.038860939 -0.26951808 -0.18067972 0.94589365 0.035604738
-0.067283228 0.088715635 0.036347646 -0.47147208 -0.21005051 0.85650039 0.046905912
-0.059291776 0.079717308 0.037092246 -0.35643405 -0.37495762 0.85578126 0.037163019
-0.065232724 0.08252535 0.035012566 -0.45962167 -0.32708544 0.82568944 0.040270619
-0.017985867 0.068002917 0.049542017 -0.34740099 -0.088863462 0.93349653 0.024139283
-0.017198546 0.059049703 0.049174346 -0.31443363 -0.081409141 0.94578224 0.036504161
-0.024633173 0.066248447 0.047723129 -0.39808226 -0.048992924 0.91604054 0.024530083
-0.035144836 0.067568198 0.043702539 -0.38329637 -0.075277686 0.92055261 0.03516376
-0.022386041 0.05648493 0.0471748 -0.32696018 -0.030097179 0.94455874 0.037420761
-0.036942869 0.060812369 0.042509127 -0.36755568 0.04699757 0.92881322 0.042085022
-0.04122771 0.066952012 0.041382756 -0.33357009 -0.10288297 0.93709451 0.049537364
-0.048181597 0.071247265 0.039150342 -0.31114665 -0.2229936 0.92382985 0.059538532
-0.04070041 0.059534337 0.04150347 -0.35344726 0.061206341 0.93344992 0.053069837
-0.020634269 0.044497322 0.048164066 -0.29786444 0.10834628 0.94843972 0.044503096
-0.028035885 0.042824399 0.046911225 -0.26169094 0.17291264 0.94953626 0.03967157
-0.020508455 0.039280489 0.04899402 -0.29553097 0.11429258 0.94847172 0.050204635
-0.029511001 0.038574982 0.04853553 -0.21177556 0.30320582 0.92909491 0.035575274
-0.022131804 0.049860306 0.047144987 -0.30342358 0.030172611 0.95237792 0.04049854
-0.032085918 0.046981331 0.045777973 -0.27739555 0.21144672 0.937199 0.037204094
-0.035243448 0.039713383 0.047415871 -0.2620649 0.31897536 0.91081101 0.02973767
-0.042602763 0.045427691 0.043229397 -0.31894675 0.32869133 0.8889516 0.035123743
-0.050923377 0.04368424 0.040733233 -0.32602417 0.32799181 0.88663948 0.056149207
-0.042546738 0.040131364 0.045393247 -0.29801893 0.38742933 0.87240082 0.03038983
-0.051020253 0.038105335 0.04391342 -0.30972654 0.42444545 0.85083228 0.0447543
-0.057197522 0.042764012 0.037611399 -0.38214949 0.25007981 0.88961893 0.0904333
-0.059946749 0.037539635 0.04190084 -0.27085811 0.51221299 0.81502992 0.036268827
-0.024064926 0.10953456 0.03793231 -0.14059924 0.57127738 0.8086248 0.017434781
-0.032379337 0.10878394 0.03795794 -0.046829142 0.55221444 0.8323859 0.023142155
-0.041127637 0.10868362 0.038227253 0.080814257 0.50956804 0.85662681 0.043484226
-0.051568899 0.1091821 0.038761958 0.24159732 0.2284978 0.94309038 0.070292212
-0.061811049 0.10868595 0.039565988 0.21134128 -0.06344983 0.97535068 0.099071436
-0.071877114 0.10576852 0.03813367 -0.32485476 -0.28004366 0.90335208 0.11992968
-0.073307186 0.098311268 0.036316127 -0.53267348 -0.22693576 0.81532764 0.084141508
-0.080078959 0.10456893 0.033692282 -0.54491299 -0.29040775 0.78659594 0.092026457
-0.078850307 0.097266801 0.032030184 -0.63569534 -0.2391094 0.73397422 0.063353501
-0.086130254 0.10464667 0.028277131 0.68287534 0.30023748 -0.66598701 0.075387619
-0.088977113 0.10266229 0.021858772 0.82853919 0.23487952 -0.50828576 0.039476894
-0.084144682 0.097449176 0.02689383 0.7331695 0.25476232 -0.63052249 0.051439136
-0.086469479 0.096925437 0.022006491 0.82960248 0.24151431 -0.50341886 0.028386837
-0.071479045 0.087588474 0.03403379 -0.59081376 -0.24853906 0.7675724 0.04173775
-0.062390972 0.075079694 0.03531884 -0.47990346 -0.35667247 0.80154687 0.052719239
-0.06889867 0.078965493 0.031627614 -0.52903968 -0.3990092 0.74893832 0.033293057
-0.073434643 0.075032152 0.02591732 0.61777735 0.51877499 -0.5909515 0.025045499
-0.076023579 0.088264771 0.030757511 0.7322492 0.21721533 -0.64546776 0.038357928
-0.074764721 0.081676997 0.028616073 0.67855042 0.37665635 -0.63063407 0.033418272
-0.081419811 0.087733343 0.024500741 0.78594881 0.24109988 -0.56934637 0.027091514
-0.084652938 0.090144381 0.020573638 0.82335901 0.23174037 -0.51805055 0.024644241
-0.077522315 0.079170473 0.023239328 0.732885 0.41604707 -0.53831625 0.032122161
-0.090070419 0.1068953 0.020539144 0.86577511 0.2224119 -0.44829279 0.049133912
-0.090642929 0.104171 0.019024899 0.84070307 0.21194853 -0.49829328 0.036386125
-0.089146256 0.098535769 0.017512403 0.85971999 0.24290358 -0.44930995 0.02983916
-0.083804362 0.084068596 0.017242836 0.83524269 0.32543534 -0.44323981 0.029004458
-0.086200304 0.090072595 0.017407134 0.85880768 0.2556197 -0.44396836 0.023098404
-0.080646023 0.077469833 0.016574664 0.77392083 0.47164661 -0.42260617 0.028856011
-0.082430452 0.07472197 0.0070940694 0.79325491 0.54711121 -0.26723769 0.021366004
-0.029186722 0.063911244 0.04589523 -0.38566545 -0.032224234 0.92207581 0.029032864
-0.032574069 0.065839805 0.044135213 -0.43868062 -0.050137155 0.89724332 0.031755172
-0.028439473 0.056634616 0.045196988 -0.34329295 0.015408711 0.93910199 0.035316087
-0.03410757 0.056968246 0.043405365 -0.39566299 0.050396472 0.91701198 0.043135568
-0.045596976 0.064579144 0.038894318 -0.39799681 -0.12755899 0.90847522 0.081637785
-0.051866371 0.066927761 0.036505163 -0.36631182 -0.23238234 0.90100729 0.090519503
-0.042943478 0.055694696 0.039930902 -0.38830221 0.15040544 0.90917522 0.080987245
-0.049474131 0.056897856 0.034446746 -0.55201507 0.047450297 0.83248293 0.14518002
-0.057156898 0.06120491 0.03143711 -0.58904052 -0.42166483 0.68936926 0.1455183
-0.056632262 0.057187237 0.029298427 -0.65875643 -0.31695169 0.68233538 0.15004733
-0.035703428 0.051174786 0.043549355 -0.30783036 0.19438806 0.93137199 0.038977988
-0.042564835 0.050152224 0.041553583 -0.33305421 0.22729197 0.91510284 0.046002101
-0.049438797 0.049257897 0.035051934 -0.62449801 0.071997121 0.77770084 0.14866671
-0.053495578 0.051015936 0.029673941 0.72739577 0.072016209 -0.68242878 0.14791873
-0.060540192 0.0507004 0.017445477 0.70290798 0.42509544 -0.5702756 0.12375542
-0.061617017 0.049362086 0.014167936 -0.60638601 -0.505364 0.61392444 0.13923822
-0.063075274 0.049891036 0.013565404 0.96649128 -0.069984496 -0.2469753 0.17887983
-0.063589543 0.051157702 0.011193985 0.96649128 -0.069984496 -0.2469753 0.17887983
-0.060585789 0.068863474 0.033940725 -0.48545918 -0.34028766 0.80531591 0.081233457
-0.067483239 0.07150761 0.03020433 -0.59696198 -0.41264743 0.68801051 0.051253751
-0.063583769 0.062796801 0.027550187 0.66833383 0.46138623 -0.58348316 0.11846893
-0.069549203 0.068216465 0.023904705 0.60698539 0.58318788 -0.53987098 0.045542326
-0.06318029 0.058817364 0.024716021 0.65039998 0.49008819 -0.58033907 0.11530489
-0.067839831 0.060989201 0.020668792 0.7249043 0.49096221 -0.48318723 0.11246081
-0.076242745 0.072825454 0.019684091 0.69030303 0.54541969 -0.47539368 0.023719881
-0.054170053 0.046418998 0.031737112 0.78853047 0.12642746 -0.60186028 0.14540613
-0.058343183 0.037904412 0.03321391 0.81792563 -0.1845357 -0.54492587 0.099952094
-0.061368816 0.035323206 0.030442314 0.85056216 -0.30324751 -0.42963356 0.10727265
-0.072404802 0.065274537 0.018459346 0.63686287 0.57117587 -0.51784533 0.05239132
-0.064667471 0.057069875 0.021009378 0.72066236 0.46927503 -0.51032019 0.12554726
-0.068331771 0.060853552 0.019861553 0.68065184 0.51181388 -0.52417523 0.10597201
-0.05787066 0.047613006 0.011718426 -0.044907685 -0.63512993 0.77109873 0.12867424
-0.077342317 0.072189108 0.016602235 0.70183676 0.57318085 -0.42295247 0.023945983
-0.064310215 0.045038965 0.011405839 0.96941054 -0.18940979 -0.15609975 0.16938201
-0.063580677 0.041740816 0.010724588 0.98675245 -0.13908079 0.083523288 0.15849149
-0.064428762 0.040205345 0.012998316 0.98448986 -0.15551819 -0.081202261 0.16563222
-0.065769471 0.03779614 0.01205471 0.96417373 -0.26281643 0.03600819 0.14605269
-0.06152923 0.047536161 0.0075619612 0.8995204 -0.34082603 0.27331427 0.18724726
-0.06376835 0.041942798 0.01000118 0.89069223 -0.29863048 0.34276396 0.18963812
-0.064911202 0.038356554 0.0093653537 0.96376753 -0.2359765 0.12436726 0.16528499
-0.016858082 0.18362859 -0.020027068 0.59322852 0.30903018 0.74335742 0.017217632
-0.014580719 0.17504314 -0.018028319 0.56418699 0.30447054 0.76745731 0.01298956
-0.017559143 0.16189626 -0.011531537 0.53670627 0.2471462 0.8067621 0.014465156
-0.017456934 0.16002068 -0.01104202 0.53520805 0.24566773 0.80820769 0.013457117
-0.01350496 0.16694632 -0.015620824 0.55459493 0.29193294 0.77923018 0.012641879
-0.01533507 0.16052508 -0.012763905 0.55121768 0.2404062 0.79897684 0.014760097
-0.013560174 0.18421452 -0.023238175 0.61580151 0.31021327 0.72426254 0.016750464
-0.010789881 0.17742921 -0.022292512 0.59322852 0.30903018 0.74335742 0.017217632
-0.0086810654 0.17009975 -0.020928411 0.59322852 0.30903018 0.74335742 0.017217632
-0.027126729 0.18177718 -0.012127759 0.50444841 0.30717722 0.80695349 0.016783627
-0.028431581 0.1818205 -0.011328547 0.50444841 0.30717722 0.80695349 0.016783627
-0.027021268 0.17869735 -0.01102131 0.50444841 0.30717722 0.80695349 0.016783627
-0.032182511 0.17536913 -0.0067510866 0.4906134 0.26440331 0.83029473 0.014698346
-0.021576716 0.183841 -0.016529689 0.56539649 0.31636351 0.7617355 0.013499022
-0.020959398 0.17666039 -0.01400426 0.53475076 0.29637417 0.79133052 0.012986441
-0.026544088 0.17265059 -0.0091882516 0.49622259 0.26530543 0.8266657 0.01580135
-0.039297741 0.1733495 -0.0021736312 0.43603501 0.23394768 0.86898905 0.012075084
-0.023264069 0.16386087 -0.0084614363 0.49515989 0.25407088 0.83082169 0.015061744
-0.031366564 0.16662043 -0.0045304596 0.48657003 0.23318961 0.84194547 0.012141675
-0.024078853 0.15839233 -0.0063218074 0.49074569 0.24146993 0.83717436 0.015177736
-0.030763987 0.15745381 -0.0020409958 0.43848729 0.24184245 0.86558717 0.011874099
-0.020628173 0.16876245 -0.011527912 0.50838739 0.2614235 0.82048768 0.016092977
-0.026273536 0.17158841 -0.0090097683 0.49622259 0.26530543 0.8266657 0.01580135
-0.042040206 0.16712022 -0.0026742143 0.14619824 0.45960787 0.87600607 0.072165996
-0.047245964 0.16393568 -0.0039194594 -0.190547 0.67264634 0.71500957 0.071559452
-0.03715542 0.16152228 0.00011952178 0.42901805 0.23720646 0.87159431 0.011378513
-0.066678248 0.1583416 -0.0082231266 0.3747797 -0.76924127 -0.51750171 0.029496903
-0.070553802 0.15678662 -0.006896134 0.3692483 -0.81079447 -0.4541674 0.02418646
-0.066850267 0.16469875 -0.016899889 0.39510018 -0.82476288 -0.40455166 0.0099229896
-0.070975594 0.16248856 -0.01642289 0.39510018 -0.82476288 -0.40455166 0.0099229896
-0.066898137 0.16229698 -0.012675236 0.38382733 -0.82623678 -0.41232195 0.0070478823
-0.072852977 0.15951408 -0.012301777 0.38659161 -0.83098769 -0.40000799 0.0079233879
-0.077010684 0.16209944 -0.019211145 0.15861325 -0.88231975 -0.44311818 0.0091950353
-0.077467322 0.15953717 -0.014471826 0.24661356 -0.87857729 -0.40900329 0.010793683
-0.073616304 0.17190053 -0.038403444 0.070050642 -0.89971018 -0.43082997 0.0082471324
-0.07753507 0.17201068 -0.039272103 0.067186661 -0.89695477 -0.43698749 0.0096968189
-0.065948233 0.16616134 -0.024882266 0.081711903 -0.90418053 -0.41926208 0.0094166175
-0.071906291 0.16601062 -0.025592757 0.09279941 -0.89960885 -0.42672259 0.0080960905
-0.066055991 0.16879864 -0.030576775 0.070278578 -0.90207773 -0.42581293 0.0070144571
-0.073346935 0.16921273 -0.032657351 0.070278578 -0.90207773 -0.42581293 0.0070144571
-0.077861801 0.16535583 -0.025466971 0.081711903 -0.90418053 -0.41926208 0.0094166175
-0.078256406 0.16241504 -0.020282529 0.15836191 -0.88245028 -0.4429481 0.0077282777
-0.078255452 0.16957086 -0.034292642 0.070050642 -0.89971018 -0.43082997 0.0082471324
-0.033358712 0.15238586 0.002086885 0.4000814 0.32900316 0.85538983 0.011050788
-0.066040665 0.17576665 -0.046377461 -0.030744968 -0.90079063 -0.43316397 0.011411002
-0.071983427 0.17561214 -0.045643941 0.0045071249 -0.89016664 -0.45561281 0.012450931
-0.069420427 0.18056339 -0.0557645 -0.10492554 -0.88445896 -0.45466796 0.013502272
-0.064858131 0.17914845 -0.0540649 -0.10492554 -0.88445896 -0.45466796 0.013502272
-0.070028327 0.17871025 -0.052507043 -0.075399823 -0.90468645 -0.41935337 0.013252333
-0.077929109 0.174989 -0.044487566 0.0046645598 -0.89007783 -0.45578468 0.010682993
