# .PCD v0.7 - Point Cloud Data file format
VERSION 0.7
FIELDS x y z label
SIZE 4 4 4 4
TYPE F F F U
COUNT 1 1 1 1
WIDTH 1303
HEIGHT 1
VIEWPOINT 0 0 0 1 0 0 0
POINTS 1303
DATA ascii
0.45132229 0.46806002 1.883 1193
0.45635509 0.46938819 1.9 1193
0.42963746 0.4770565 1.9150001 1193
0.42838892 0.47605559 1.9250001 1193
0.44500953 0.46871907 1.9150001 1193
0.44318575 0.47236669 1.9150001 1193
0.41757306 0.48064733 1.8396667 1193
0.41170287 0.48466289 1.8240001 1193
0.41722575 0.48356289 1.8330001 1193
0.42907432 0.47771433 1.8240001 1193
0.4270668 0.47664741 1.8357273 1193
0.42733717 0.4811886 1.8240001 1193
0.44079274 0.47441402 1.836077 1193
0.41824859 0.48178002 1.853 1193
0.41946024 0.48072201 1.8668466 1193
0.42613336 0.48416004 1.904 1193
0.42883718 0.47589746 1.853 1193
0.43186122 0.474444 1.8630002 1193
0.4464848 0.4711915 1.853 1193
0.44179717 0.47373432 1.863 1193
0.42494765 0.48695716 1.9150001 1193
0.54716271 0.46262917 1.8407779 1194
0.55966574 0.45792601 1.8368462 1194
0.57922864 0.45109621 1.8430001 1194
0.57325405 0.456211 1.8366364 1194
0.59034514 0.45109621 1.8430001 1194
0.58889145 0.45339432 1.8240001 1194
0.58717924 0.45469353 1.8372859 1194
0.60380197 0.45109621 1.8430001 1194
0.60105145 0.45339432 1.8240001 1194
0.60044771 0.45412609 1.8363334 1194
0.61851144 0.44817623 1.8374445 1194
0.61321145 0.44992003 1.8240001 1194
0.54227817 0.45843908 1.8730001 1194
0.53727239 0.4625476 1.868 1194
0.53278798 0.45917273 1.9006667 1194
0.541228 0.45873469 1.8830001 1194
0.54519165 0.45696077 1.9002501 1194
0.56657338 0.45072952 1.9006667 1194
0.57774812 0.44861063 1.8982857 1194
0.55413526 0.45354384 1.853 1194
0.5542711 0.45624733 1.8713335 1194
0.5493452 0.46009865 1.8529999 1194
0.54721099 0.46193099 1.8655 1194
0.56472385 0.45354384 1.853 1194
0.56929529 0.45187336 1.868 1194
0.55942959 0.45707336 1.853 1194
0.55772674 0.45550671 1.8830001 1194
0.56173068 0.4553296 1.8982857 1194
0.57386672 0.45012671 1.8830001 1194
0.53619999 0.45412859 1.9150001 1194
0.5515722 0.45256528 1.9150001 1194
0.53619999 0.45777622 1.9150001 1194
0.55626196 0.45777622 1.9150001 1194
0.56720477 0.45230478 1.9150001 1194
0.57075334 0.44963333 1.9269999 1194
0.58301115 0.44804922 1.9150001 1194
0.55990958 0.45777622 1.9150001 1194
0.59243292 0.44974148 1.8965001 1194
0.60435337 0.44654003 1.883 1194
0.60714674 0.44632196 1.8973333 1194
0.57884192 0.45177907 1.853 1194
0.58135462 0.4497931 1.86675 1194
0.59260708 0.45072022 1.853 1194
0.59776956 0.45009908 1.868 1194
0.59180003 0.45012671 1.8830001 1194
0.60256004 0.45012671 1.8830001 1194
0.61870003 0.44564334 1.8830001 1194
0.60707814 0.45001432 1.853 1194
0.61372131 0.44931147 1.8696667 1194
0.62296104 0.44736719 1.853 1194
0.61332005 0.45012671 1.8830001 1194
0.5993039 0.44975144 1.9150002 1194
0.61316478 0.44537431 1.9150002 1194
0.61233342 0.44550002 1.9250001 1194
0.51309663 0.45784935 1.9338001 1195
0.52589852 0.45202461 1.9294001 1195
0.5165391 0.44940767 1.9580001 1195
0.5168159 0.45482978 1.9470003 1195
0.51467431 0.45500195 1.9580001 1195
0.53332198 0.44940764 1.9580001 1195
0.52599907 0.45182765 1.9470001 1195
0.54542863 0.4410857 1.9920001 1195
0.53145194 0.44050136 2.0072858 1195
0.5454396 0.43781129 2.0060003 1195
0.52477127 0.45093507 1.9778001 1195
0.52821881 0.44799677 1.9920003 1195
0.53919208 0.44713429 1.9726667 1195
0.54068577 0.44772574 1.9920002 1195
0.52459526 0.4482905 2.003 1195
0.53961599 0.45040917 1.9272 1195
0.55447131 0.45144001 1.9316 1195
0.54824007 0.44940764 1.9580001 1195
0.54516006 0.45059144 1.9470001 1195
0.56427699 0.44866171 1.9579999 1195
0.55999434 0.45059144 1.9470001 1195
0.57711244 0.44435811 1.9360001 1195
0.5883534 0.44309574 1.9305 1195
0.5890134 0.44757083 1.9286667 1195
0.58162767 0.44564667 1.9470001 1195
0.57994097 0.44521189 1.9580001 1195
0.57112002 0.45059144 1.9470001 1195
0.59337151 0.4431743 1.9470001 1195
0.59784263 0.4412027 1.9579999 1195
0.61723626 0.43448955 1.9580001 1195
0.60518235 0.44311562 1.9338001 1195
0.60201585 0.4481625 1.9297144 1195
0.61776006 0.44125199 1.9305001 1195
0.6082058 0.44224715 1.9470001 1195
0.61084276 0.43981746 1.9580001 1195
0.62304008 0.43946573 1.9470001 1195
0.57514292 0.43937147 1.9800001 1195
0.57293719 0.4420343 1.9920001 1195
0.56275916 0.43941757 2.008647 1195
0.57721448 0.43856922 2.0080001 1195
0.58203864 0.43628764 2.0270002 1195
0.58850354 0.43730065 1.9763335 1195
0.59096003 0.43729144 1.9920001 1195
0.60225976 0.43670899 1.9752858 1195
0.60645336 0.43571052 1.9920001 1195
0.59275758 0.43699735 2.0090003 1195
0.61043811 0.4368448 2.003 1195
0.55286002 0.44754809 1.9745001 1195
0.55776006 0.44582859 1.9920001 1195
0.56790078 0.44566876 1.9745001 1195
0.56724572 0.44582859 1.9920001 1195
0.58085501 0.44255623 1.969 1195
0.59820098 0.44068098 1.9690002 1195
0.616238 0.43617019 1.9752858 1195
0.61846864 0.43444574 1.9920001 1195
0.48454955 0.44980097 2.0270002 1196
0.4492667 0.4551267 2.0510001 1196
0.46217334 0.45246384 2.039 1196
0.46222115 0.45436674 2.0582001 1196
0.45474288 0.45672002 2.0760002 1196
0.45737147 0.45538288 2.0880001 1196
0.46660572 0.45375431 2.0760002 1196
0.47062862 0.45074287 2.0880001 1196
0.47498995 0.4516871 2.039 1196
0.47753525 0.45014289 2.0550003 1196
0.49052516 0.44935679 2.039 1196
0.49450991 0.4468759 2.0550003 1196
0.48720002 0.44345146 2.0880001 1196
0.48242289 0.44980001 2.0760002 1196
0.48401833 0.44822401 2.0880001 1196
0.50112003 0.44345146 2.0880001 1196
0.49824005 0.44683433 2.0760002 1196
0.49714291 0.44742861 2.0880001 1196
0.44465303 0.46009687 2.0270002 1196
0.45559239 0.45559242 2.0270002 1196
0.4884105 0.45366195 2.0270002 1196
0.44663811 0.45828956 2.039 1196
0.44731337 0.45903337 2.0510001 1196
0.45440573 0.45634764 2.039 1196
0.50192386 0.44980097 2.0270002 1196
0.52702004 0.44207907 2.0270002 1196
0.50572747 0.44691557 2.0389998 1196
0.50860381 0.44307572 2.0540004 1196
0.52237242 0.4427543 2.0389998 1196
0.52414447 0.44015113 2.0510004 1196
0.51603431 0.44090286 2.0760002 1196
0.51702857 0.44046861 2.0880001 1196
0.50812572 0.44485718 2.0760002 1196
0.46021909 0.45421621 2.1010001 1196
0.47518647 0.44507927 2.1075001 1196
0.46851751 0.45247686 2.1053333 1196
0.489149 0.44283265 2.1057272 1196
0.46473145 0.45211431 2.2080002 1197
0.46473145 0.46052575 2.2080002 1197
0.48391241 0.4408524 2.1530001 1197
0.46794003 0.45578575 2.1270001 1197
0.47806859 0.44363147 2.1270001 1197
0.47080004 0.45245719 2.1400001 1197
0.47160956 0.45110479 2.1530001 1197
0.46955907 0.46135718 2.1530001 1197
0.47895241 0.44362545 2.1400001 1197
0.47776097 0.44495335 2.1530001 1197
0.47278267 0.43962839 2.1754 1197
0.46596384 0.44924766 2.194 1197
0.49017739 0.42803907 2.1754 1197
0.48862576 0.43686387 2.174 1197
0.46885929 0.45438591 2.1726 1197
0.46596384 0.45969528 2.194 1197
0.46848479 0.46435717 2.1670001 1197
0.53860289 0.43693113 2.0270002 1198
0.5324505 0.43814194 2.0630002 1198
0.53119242 0.43826672 2.0760002 1198
0.53492576 0.43629259 2.0880001 1198
0.54484099 0.43531719 2.0534 1198
0.53790766 0.4369286 2.039 1198
0.55921215 0.43500152 2.056143 1198
0.55538476 0.4369286 2.039 1198
0.54766864 0.43694863 2.0760002 1198
0.55282289 0.43549716 2.0880001 1198
0.57139432 0.4369486 2.0760002 1198
0.56753838 0.43470174 2.0880001 1198
0.59265625 0.43435717 2.0270002 1198
0.60651433 0.41163433 2.0880001 1198
0.60353148 0.42157719 2.0880001 1198
0.5759486 0.43686765 2.0570002 1198
0.57286197 0.4369286 2.039 1198
0.57037342 0.43950003 2.0510001 1198
0.59373206 0.43423614 2.0590003 1198
0.5883972 0.4369286 2.039 1198
0.58721149 0.4369486 2.0760002 1198
0.58464003 0.43848005 2.0880001 1198
0.59643811 0.43299428 2.0760002 1198
0.59856004 0.43284574 2.0880001 1198
0.61192572 0.42080188 2.0760002 1198
0.60935038 0.43224111 2.0580587 1198
0.60393238 0.4369286 2.039 1198
0.61139339 0.43950003 2.0510001 1198
0.61620957 0.42904004 2.0760002 1198
0.55568004 0.41676003 2.1140001 1198
0.55803186 0.42538357 2.1062 1198
0.57380003 0.41676003 2.1140001 1198
0.57315761 0.42484882 2.10425 1198
0.55626476 0.43554068 2.1010001 1198
0.57427335 0.43420669 2.1010001 1198
0.59393334 0.41676003 2.1140001 1198
0.59353435 0.41932288 2.1270001 1198
0.59137088 0.42774183 2.1140001 1198
0.59677541 0.42742571 2.1270001 1198
0.60428762 0.41419718 2.1010001 1198
0.60330153 0.42561451 2.1065714 1198
0.60568863 0.42742574 2.1270001 1198
0.58898777 0.43707323 2.1065714 1198
0.59828478 0.43420669 2.1010001 1198
0.51048005 0.43552861 2.1270001 1199
0.49933338 0.43819055 2.1400001 1199
0.50236672 0.43675146 2.1530001 1199
0.52287143 0.42444861 2.1530001 1199
0.51359999 0.43819052 2.1400001 1199
0.51740348 0.43538448 2.1530001 1199
0.49427432 0.43958002 2.1270001 1199
0.50580001 0.44156525 2.1075001 1199
0.51048005 0.43958002 2.1270001 1199
0.50219369 0.42583275 2.1670001 1199
0.50362462 0.43617377 2.1726 1199
0.51801622 0.42720857 2.1670001 1199
0.51939207 0.43271211 2.1670001 1199
0.54561335 0.43286669 2.1140001 1199
0.54491723 0.43309775 2.1270001 1199
0.53107339 0.42444861 2.1530001 1199
0.53092384 0.43564287 2.1400001 1199
0.53107339 0.4314788 2.1530001 1199
0.55436194 0.42188573 2.1400001 1199
0.5497762 0.42952859 2.1400001 1199
0.54611021 0.43128356 2.1530001 1199
0.52145946 0.43821561 2.105875 1199
0.5206086 0.43958002 2.1270001 1199
0.53746909 0.43532145 2.1031666 1199
0.55707145 0.42742574 2.1270001 1199
0.54954481 0.43253145 2.194 1199
0.54628861 0.43412289 2.181 1199
0.55044287 0.4299686 2.181 1199
0.54690957 0.43133622 2.1670001 1199
0.29383239 0.37747812 2.2520001 1200
0.29565907 0.38629907 2.266 1200
0.29109907 0.38016668 2.2810001 1200
0.29182839 0.38808364 2.2970002 1200
0.30213335 0.38845715 2.266 1200
0.29285339 0.39634287 2.312 1200
0.29624635 0.40679875 2.3213749 1200
0.3086206 0.40753451 2.3180001 1200
0.26372668 0.36567149 2.3270001 1201
0.24788541 0.37367496 2.3170002 1201
0.2611953 0.37629974 2.3241875 1201
0.25486192 0.38783336 2.3270001 1201
0.27326024 0.37947309 2.3232501 1201
0.27742675 0.39387751 2.3269999 1201
0.30891907 0.35152858 2.237 1202
0.31033939 0.35863018 2.237 1202
0.31957144 0.36111575 2.237 1202
0.32383239 0.37922478 2.237 1202
0.31528002 0.35388574 2.2520001 1202
0.31956956 0.35388574 2.2520001 1202
0.3093819 0.3683629 2.2520001 1202
0.30830953 0.38069525 2.2520003 1202
0.31956956 0.36246479 2.2520001 1202
0.32332289 0.38337621 2.2520001 1202
0.32600385 0.39249146 2.2520001 1202
0.25066385 0.40240097 2.3430002 1203
0.26362735 0.39719433 2.3430002 1203
0.26735336 0.4066467 2.3590002 1203
0.25066385 0.41653338 2.3430002 1203
0.26220357 0.41715768 2.3242726 1203
0.26235226 0.41472697 2.3430002 1203
0.26107717 0.43066573 2.3430002 1203
0.26286 0.41114002 2.3590002 1203
0.28450716 0.40054145 2.3430002 1203
0.27259144 0.41442761 2.3270001 1203
0.2824989 0.41459948 2.3430002 1203
0.29901144 0.41727716 2.3430002 1203
0.28712401 0.42551869 2.3590002 1203
0.29431334 0.42462003 2.3590002 1203
0.24863112 0.42162451 2.3590002 1204
0.24665144 0.43220574 2.3760002 1204
0.25387335 0.43585336 2.3590002 1204
0.25298744 0.44668803 2.3760002 1204
0.26061335 0.43810004 2.3590002 1204
0.2647543 0.44352004 2.3760002 1204
0.2437562 0.43511623 2.3920002 1204
0.24740115 0.44149488 2.3920002 1204
0.24778286 0.4542686 2.4090002 1204
0.26653716 0.4487848 2.3920002 1204
0.2470181 0.46268097 2.4090002 1204
0.19544001 0.46300671 2.4430001 1206
0.20154402 0.46586403 2.4780002 1206
0.19783111 0.46248639 2.4960001 1206
0.20255658 0.45635086 2.5140002 1206
0.19361791 0.46810251 2.4260001 1206
0.19621557 0.46766004 2.4430001 1206
0.24089999 0.44738576 2.4090002 1206
0.2218024 0.46227479 2.4514999 1206
0.24028954 0.44130099 2.4260001 1206
0.23662859 0.44748574 2.46 1206
0.23913431 0.45285338 2.4260001 1206
0.23235841 0.45867553 2.4447002 1206
0.22582859 0.45403433 2.4960001 1206
0.21633336 0.46439564 2.4780004 1206
0.21727088 0.46069032 2.4960001 1206
0.23873307 0.44995922 2.4960001 1206
0.23049335 0.45705339 2.4780002 1206
0.21924819 0.45457226 2.5140002 1206
0.24661145 0.45252004 2.5140002 1206
0.24355429 0.45093718 2.5320001 1206
0.2543543 0.44690287 2.4960001 1206
0.24090001 0.46344572 2.4090002 1206
0.21949525 0.46902668 2.4260001 1206
0.2132778 0.47076225 2.4430001 1206
0.23243392 0.46810251 2.4260001 1206
0.23034002 0.46766004 2.4430001 1206
0.21476002 0.47436002 2.4780002 1206
0.21037655 0.44642889 2.6090002 1207
0.2113931 0.44102821 2.6289999 1207
0.23252383 0.44301906 2.5700002 1207
0.25088096 0.43995959 2.5699999 1207
0.22931142 0.4446505 2.5890002 1207
0.22487096 0.44601479 2.6090002 1207
0.25841525 0.42986384 2.6090002 1207
0.24739332 0.43889716 2.5890005 1207
0.25344574 0.43731812 2.6090002 1207
0.22497392 0.4533492 2.5510001 1207
0.22413199 0.45001227 2.5699999 1207
0.24376225 0.45027176 2.5510004 1207
0.24720955 0.4479143 2.5700002 1207
0.26352701 0.44138733 2.5700002 1207
0.26586953 0.42986384 2.6090002 1207
0.26383144 0.43643147 2.5890002 1207
0.26586953 0.43483335 2.6090002 1207
0.26238859 0.44946194 2.5510001 1207
0.26434287 0.4479143 2.5700002 1207
0.22884819 0.44217283 2.6290002 1207
0.25538859 0.43065527 2.6290002 1207
0.24537335 0.44067049 2.6290002 1207
0.26790765 0.42815146 2.6290002 1207
0.43880898 0.40700403 2.6090002 1208
0.45305493 0.40667272 2.6090002 1208
0.42573217 0.41311789 2.6490002 1208
0.40861121 0.41560143 2.6690004 1208
0.44174355 0.40597486 2.6289999 1208
0.45318952 0.40478256 2.6290002 1208
0.43889719 0.41917145 2.5890002 1208
0.4355433 0.41921487 2.609 1208
0.4081983 0.4243446 2.6490002 1208
0.42314383 0.42064002 2.6289999 1208
0.41627145 0.42384002 2.6490002 1208
0.40924668 0.42958194 2.6690001 1208
0.43315908 0.41813621 2.6290002 1208
0.45318955 0.41813621 2.6290002 1208
0.55560958 0.39406669 2.5700002 1209
0.56464863 0.39698002 2.5890002 1209
0.5690105 0.40004671 2.6090002 1209
0.57894957 0.40750098 2.6090002 1209
0.56335717 0.38558668 2.6290002 1209
0.57661307 0.39104289 2.6490002 1209
0.57838005 0.39810574 2.6290002 1209
0.57268858 0.40113431 2.6490002 1209
0.67107576 -0.25227445 1.3972857 1210
0.67061901 -0.24216938 1.397125 1210
0.68176192 -0.25152382 1.3900001 1210
0.68005151 -0.25194478 1.396 1210
0.6870572 -0.25152382 1.3900002 1210
0.69399291 -0.25453427 1.3969474 1210
0.6829105 -0.24274905 1.4005003 1210
0.69461423 -0.24264558 1.3999002 1210
0.69579965 -0.23254226 1.4020003 1210
0.69546002 -0.22914001 1.4070001 1210
0.70015001 -0.22221668 1.4069999 1210
0.70464766 -0.24197331 1.396 1210
0.70615911 -0.23183003 1.3990002 1210
0.71231139 -0.24062783 1.3900001 1210
0.71484065 -0.24330287 1.396 1210
0.71222746 -0.23212144 1.3887502 1210
0.71615618 -0.22983144 1.3990002 1210
0.723261 -0.24197336 1.396 1210
0.723261 -0.23532572 1.396 1210
0.7103467 -0.22565526 1.4020001 1210
0.70981723 -0.22186574 1.4069998 1210
0.70771152 -0.21306001 1.4070002 1210
0.69375002 -0.27221668 1.3875 1211
0.70625257 -0.27108133 1.3783751 1211
0.71314007 -0.26923335 1.3790001 1211
0.70035958 -0.27221552 1.3875002 1211
0.7056905 -0.27436191 1.3850001 1211
0.72020006 -0.27172384 1.3850001 1211
0.69499999 -0.26608574 1.39 1211
0.69622737 -0.26280257 1.396 1211
0.70938766 -0.26210386 1.3789999 1211
0.71419072 -0.26345471 1.3790001 1211
0.70103914 -0.26470831 1.3883334 1211
0.7006591 -0.26191622 1.396 1211
0.70347244 -0.25443619 1.3900001 1211
0.7040273 -0.25340727 1.396 1211
0.7074492 -0.26424921 1.3850001 1211
0.7107932 -0.2528249 1.3866667 1211
0.71262479 -0.24862097 1.396 1211
0.71940863 -0.26407334 1.3850001 1211
0.72015244 -0.25549528 1.3900002 1211
0.723261 -0.2499505 1.396 1211
0.64900291 -0.44954574 1.6110001 1212
0.65514004 -0.45645002 1.6110001 1212
0.66260958 -0.45920384 1.618 1212
0.6562677 -0.45041743 1.61 1212
0.66415054 -0.45149907 1.618 1212
0.67185527 -0.45766288 1.618 1212
0.66837454 -0.44950166 1.6090002 1212
0.67968863 -0.45261431 1.6110001 1212
0.66108859 -0.46729431 1.641 1212
0.66753435 -0.4750067 1.6570001 1212
0.68204737 -0.47822067 1.6463333 1212
0.67700291 -0.48131907 1.6570001 1212
0.67977452 -0.49017516 1.6683335 1212
0.69199479 -0.48763147 1.6570001 1212
0.69141865 -0.48818812 1.6670001 1212
0.69958103 -0.47998482 1.6470001 1212
0.70985532 -0.47899526 1.649 1212
0.69909626 -0.49078766 1.6570001 1212
0.70584673 -0.48756003 1.6730001 1212
0.69641429 -0.50109816 1.6810001 1212
0.70135736 -0.49455389 1.68325 1212
0.72560167 -0.50108457 1.70825 1212
0.66443622 -0.46557906 1.6313334 1212
0.67240131 -0.47321886 1.6442 1212
0.67367911 -0.46437049 1.628 1212
0.68424231 -0.47190118 1.6417999 1212
0.67069054 -0.4750067 1.6570001 1212
0.6771667 -0.48278004 1.6730001 1212
0.69930005 -0.47095716 1.6650001 1212
0.69729149 -0.47585431 1.649 1212
0.7082848 -0.47585431 1.649 1212
0.70540863 -0.47816288 1.6570001 1212
0.7083115 -0.47739831 1.6698002 1212
0.71846098 -0.48003241 1.6690001 1212
0.70602006 -0.47868478 1.6810001 1212
0.7178477 -0.4844667 1.6900001 1212
0.7220543 -0.48271719 1.6980001 1212
0.73072386 -0.48607624 1.6900001 1212
0.72933149 -0.48352575 1.6980001 1212
0.69188768 -0.41913909 1.618 1213
0.70000798 -0.42122507 1.6083335 1213
0.69893199 -0.41891894 1.618 1213
0.71383119 -0.45315111 1.5913333 1213
0.71182781 -0.44640556 1.5925001 1213
0.70990002 -0.44120669 1.603 1213
0.72098815 -0.4455393 1.6090001 1213
0.72887051 -0.44533527 1.618 1213
0.71344298 -0.43727148 1.6110001 1213
0.71346098 -0.43300763 1.618 1213
0.7054646 -0.42254227 1.6110001 1213
0.71089274 -0.42376193 1.618 1213
0.71819502 -0.43739745 1.6098573 1213
0.72455585 -0.43670592 1.618 1213
0.72346747 -0.45335257 1.593375 1213
0.72656006 -0.44840002 1.5960001 1213
0.73185426 -0.44954574 1.6110001 1213
0.73195243 -0.44687623 1.618 1213
0.73195243 -0.43917143 1.618 1213
0.69221145 -0.41966289 1.626 1213
0.71884692 -0.42709604 1.626 1213
0.72568673 -0.42457619 1.6410002 1213
0.73170006 -0.43747145 1.626 1213
0.72917432 -0.42818856 1.6290003 1213
0.73298001 -0.4235343 1.6410002 1213
0.7425018 -0.44983888 1.6276001 1213
0.74005651 -0.44071814 1.6313334 1213
0.6827572 -0.39124289 1.6110001 1213
0.6898331 -0.39499748 1.618 1213
0.69963431 -0.40658578 1.6110001 1213
0.69805151 -0.40989336 1.618 1213
0.69810003 -0.39299637 1.6110001 1213
0.69839394 -0.39979157 1.618 1213
0.68582577 -0.38664004 1.6110001 1213
0.69034672 -0.38369718 1.618 1213
0.69634658 -0.38685921 1.6110001 1213
0.70113343 -0.38472447 1.618 1213
0.70692217 -0.40658575 1.6110001 1213
0.70883816 -0.41451621 1.618 1213
0.70577151 -0.39584574 1.6110001 1213
0.70935184 -0.40116128 1.618 1213
0.70883816 -0.38986099 1.618 1213
0.69453079 -0.41231316 1.6300001 1213
0.69390857 -0.41572005 1.641 1213
0.69113719 -0.4014416 1.6274546 1213
0.69995433 -0.41656575 1.626 1213
0.69376004 -0.38249716 1.626 1213
0.69547051 -0.38033336 1.6300001 1213
0.70253533 -0.38352954 1.626 1213
0.70642191 -0.37690958 1.6320001 1213
0.7071929 -0.37586716 1.641 1213
0.72051626 -0.41861525 1.6340001 1213
0.72610348 -0.41540748 1.641 1213
0.71409655 -0.38653779 1.63 1213
0.72693712 -0.39010003 1.645 1213
0.71540862 -0.37636861 1.633 1213
0.72516572 -0.37821144 1.6409999 1213
0.73487687 -0.38685396 1.6313334 1213
0.73452193 -0.37815431 1.6339999 1213
0.73119396 -0.37888125 1.6409999 1213
0.71584761 -0.36881718 1.6340001 1213
0.64535052 -0.5261324 1.6690001 1214
0.64689338 -0.5242067 1.6730001 1214
0.65489888 -0.52716881 1.6660001 1214
0.65549737 -0.52356941 1.6730001 1214
0.66374695 -0.53055567 1.6569999 1214
0.6667313 -0.52895993 1.6679093 1214
0.66002899 -0.5200184 1.6809999 1214
0.673599 -0.52477926 1.6850911 1214
0.67920005 -0.52395433 1.6980001 1214
0.68405145 -0.50616574 1.6980001 1214
0.68119121 -0.5325461 1.6700912 1214
0.68200576 -0.52991527 1.6810001 1214
0.69537151 -0.53527433 1.6980001 1214
0.68302673 -0.52570903 1.6855 1214
0.69698864 -0.53042293 1.6980001 1214
0.69702291 -0.53292191 1.7060001 1214
0.68728578 -0.50616574 1.6980001 1214
0.61796761 -0.52671337 1.6810001 1215
0.62260002 -0.52880573 1.6980001 1215
0.62230003 -0.53083336 1.715 1215
0.62410897 -0.53330952 1.723 1215
0.62759387 -0.52943623 1.7105001 1215
0.63723654 -0.5322156 1.723 1215
0.62520289 -0.52674574 1.723 1215
0.63012576 -0.52674574 1.723 1215
0.656021 -0.52664953 1.6980001 1215
0.63863337 -0.53083336 1.715 1215
0.6448943 -0.5316686 1.723 1215
0.65477908 -0.52804768 1.7060001 1215
0.65999115 -0.53199679 1.7229999 1215
0.64161241 -0.52510476 1.723 1215
0.62516958 -0.53609526 1.7320001 1215
0.63435692 -0.53495938 1.7589999 1215
0.63891304 -0.52820927 1.7350001 1215
0.64831716 -0.5310505 1.7590002 1215
0.64479721 -0.53648478 1.7770001 1215
0.64489907 -0.53376764 1.7680001 1215
0.65709209 -0.53647399 1.7350001 1215
0.66339433 -0.54780287 1.7590001 1215
0.6617372 -0.55060577 1.7680001 1215
0.67102504 -0.5574984 1.77925 1215
0.65321141 -0.52454859 1.7320002 1215
0.65501815 -0.5310505 1.7590001 1215
0.66651636 -0.52711552 1.7383001 1215
0.67398006 -0.48756003 1.6730001 1216
0.66795242 -0.49090481 1.6900001 1216
0.66561598 -0.49646288 1.6980002 1216
0.67429316 -0.4930636 1.6877501 1216
0.67866105 -0.50185341 1.6980001 1216
0.67102671 -0.50205147 1.7060001 1216
0.68240005 -0.50855052 1.7060001 1216
0.67398006 -0.48278004 1.6730001 1216
0.66795236 -0.4844667 1.6900001 1216
0.67429453 -0.48220935 1.6877503 1216
0.67434859 -0.48029146 1.6980001 1216
0.69048578 -0.50378096 1.6900001 1216
0.68726671 -0.50056195 1.6900001 1216
0.65494293 -0.49646288 1.6980001 1217
0.64766085 -0.4986783 1.7078001 1217
0.65152955 -0.49880195 1.706 1217
0.65656006 -0.48999432 1.6980001 1217
0.64674723 -0.48994631 1.7114 1217
0.65309906 -0.48736289 1.723 1217
0.64843339 -0.48183337 1.715 1217
0.6448943 -0.48408097 1.723 1217
0.65782607 -0.48801064 1.7090001 1217
0.65802193 -0.48900384 1.723 1217
0.66033715 -0.4809905 1.712 1217
0.66458577 -0.48079908 1.723 1217
0.66476673 -0.46550003 1.715 1217
0.66458577 -0.46931243 1.723 1217
0.66552782 -0.4855839 1.6980001 1217
0.67111433 -0.47705719 1.6980001 1217
0.67921913 -0.47480956 1.6900001 1217
0.67596579 -0.47705719 1.6980001 1217
0.66615242 -0.48255432 1.7060001 1217
0.67152083 -0.47723031 1.7114 1217
0.67508781 -0.47554803 1.7229999 1217
0.66903687 -0.46577463 1.712 1217
0.64499909 -0.49577051 1.7410001 1217
0.64277786 -0.49500003 1.7500001 1217
0.64167649 -0.48413622 1.7350001 1217
0.64833373 -0.48805368 1.7530001 1217
0.65163434 -0.48830479 1.7680001 1217
0.65319121 -0.49350739 1.7837501 1217
0.64499909 -0.47089911 1.7410001 1217
0.64833337 -0.47333336 1.7500001 1217
0.65163434 -0.48325336 1.7680001 1217
0.64987433 -0.48571336 1.7770001 1217
0.64449054 -0.48721433 1.7950001 1217
0.65816671 -0.48721433 1.7950001 1217
0.64773053 -0.49405909 1.7350001 1217
0.65368885 -0.48229131 1.7387497 1217
0.6666581 -0.48038122 1.7360002 1217
0.65455317 -0.47077709 1.7384999 1217
0.65333337 -0.46833336 1.7500001 1217
0.65598953 -0.45770958 1.7350001 1217
0.65366668 -0.46233338 1.7500002 1217
0.66790158 -0.4693231 1.7375385 1217
0.67956007 -0.49926859 1.618 1218
0.68582577 -0.5001772 1.6110001 1218
0.68634021 -0.50265872 1.618 1218
0.69656575 -0.50784862 1.6110001 1218
0.6919629 -0.50171149 1.6110001 1218
0.68027145 -0.53914291 1.6650001 1218
0.68857557 -0.53550035 1.6569999 1218
0.70651054 -0.53066099 1.6340001 1218
0.70911974 -0.53066951 1.6436666 1218
0.70435661 -0.53497434 1.6570001 1218
0.70881432 -0.53914291 1.6650001 1218
0.71515721 -0.54072863 1.6650001 1218
0.69258004 -0.51982766 1.649 1218
0.68628007 -0.5088743 1.6340001 1218
0.68780071 -0.51271778 1.6463333 1218
0.69183695 -0.52897751 1.6569998 1218
0.69125533 -0.52916878 1.6685557 1218
0.68962765 -0.51919335 1.6570001 1218
0.68820006 -0.5201143 1.6650001 1218
0.69924802 -0.52013463 1.645 1218
0.69137979 -0.51011872 1.6313334 1218
0.69234574 -0.51418 1.641 1218
0.70447856 -0.51952243 1.6320001 1218
0.70484865 -0.52512002 1.641 1218
0.70150286 -0.50948006 1.626 1218
0.70351493 -0.52897751 1.6569998 1218
0.76603341 -0.51613337 1.715 1219
0.77179462 -0.51854104 1.7229999 1219
0.78890008 -0.49816671 1.715 1219
0.79258007 -0.4972086 1.723 1219
0.76446706 -0.54891968 1.7590002 1219
0.75434673 -0.54723811 1.7680001 1219
0.75649434 -0.54663908 1.7770001 1219
0.76517117 -0.54579484 1.7679999 1219
0.76495624 -0.55002385 1.7770001 1219
0.7505067 -0.52434957 1.7590001 1219
0.75218195 -0.51429814 1.7590001 1219
0.7560305 -0.53040004 1.7680001 1219
0.75618666 -0.53863871 1.7770003 1219
0.75490803 -0.52254224 1.7680001 1219
0.7656523 -0.53352714 1.7679998 1219
0.76394087 -0.53851569 1.7770001 1219
0.76234478 -0.51987624 1.7679999 1219
0.77521753 -0.55372924 1.7530001 1219
0.76604009 -0.54053909 1.7410001 1219
0.77112401 -0.5441317 1.7525715 1219
0.78483659 -0.55440158 1.7533751 1219
0.7833333 -0.54333329 1.7500001 1219
0.76769811 -0.52837968 1.7410001 1219
0.76791668 -0.53041673 1.7500001 1219
0.77740926 -0.52912635 1.738 1219
0.78500003 -0.53500003 1.7500001 1219
0.79500008 -0.55166668 1.7500001 1219
0.80086005 -0.54219717 1.7410001 1219
0.79759258 -0.54296285 1.7500001 1219
0.80417627 -0.54219717 1.7410001 1219
0.8083334 -0.54000002 1.7500001 1219
0.79283607 -0.52902329 1.7396153 1219
0.79342103 -0.50310481 1.7320001 1219
0.8083334 -0.53500003 1.7500001 1219
0.79754388 -0.5024029 1.7410001 1219
0.79833341 -0.50500005 1.7500001 1219
0.80822861 -0.5068267 1.7680001 1219
0.74852765 -0.4793067 1.6340001 1220
0.75486004 -0.48292288 1.641 1220
0.75798577 -0.48292288 1.641 1220
0.76590008 -0.48681432 1.6650001 1220
0.77966386 -0.4898915 1.6810001 1220
0.75329721 -0.46416861 1.641 1220
0.75329715 -0.45583335 1.6409999 1220
0.76360196 -0.46473432 1.6429999 1220
0.76012838 -0.45454913 1.6340001 1220
0.7611115 -0.45604172 1.641 1220
0.75906384 -0.47185051 1.6570001 1220
0.76590008 -0.4741286 1.6650001 1220
0.7766394 -0.47679609 1.6695715 1220
0.75295717 -0.44457147 1.6436669 1220
0.74126548 -0.43210223 1.6340002 1220
0.74990445 -0.43050164 1.6431055 1220
0.76476914 -0.44506428 1.6455001 1220
0.7657643 -0.43565011 1.6489999 1220
0.76222003 -0.42924193 1.6570001 1220
0.77123773 -0.43082002 1.6569998 1220
0.77329999 -0.43078575 1.6650001 1220
0.77326006 -0.48188668 1.6810001 1220
0.78030425 -0.48444825 1.6810001 1220
0.76639247 -0.41460577 1.649 1220
0.77033597 -0.42135146 1.6569998 1220
0.77329999 -0.42550004 1.6650001 1220
0.77205145 -0.46416861 1.641 1220
0.7679801 -0.45285147 1.6340001 1220
0.77205145 -0.45948005 1.641 1220
0.7855134 -0.47640669 1.6730001 1220
0.77524745 -0.44577032 1.6458 1220
0.77909893 -0.4330231 1.649 1220
0.78010511 -0.43134606 1.6569999 1220
0.77895623 -0.42088762 1.649 1220
0.77800101 -0.41977337 1.6570001 1220
0.78175718 -0.42655718 1.6650001 1220
0.6853711 -0.4797051 1.723 1221
0.67114955 -0.47095338 1.723 1221
0.66821235 -0.46012145 1.7410001 1221
0.6971603 -0.48271126 1.7387501 1221
0.70166665 -0.48166668 1.7500001 1221
0.70214862 -0.48662099 1.7680001 1221
0.67816103 -0.46758288 1.7410001 1221
0.70450538 -0.47846919 1.7554001 1221
0.70607752 -0.47876322 1.768 1221
0.71350646 -0.4782117 1.7837502 1221
0.72789335 -0.48255432 1.7060001 1221
0.7266109 -0.47951525 1.7114 1221
0.73350579 -0.48079908 1.723 1221
0.74161857 -0.48789337 1.7105001 1221
0.74499243 -0.48736289 1.723 1221
0.74077207 -0.4809905 1.712 1221
0.74335146 -0.48408097 1.723 1221
0.74674934 -0.48806503 1.70825 1221
0.74576575 -0.47930479 1.7060001 1221
0.75812006 -0.48408097 1.723 1221
0.73388892 -0.48611116 1.7500001 1221
0.71561909 -0.48830479 1.7680001 1221
0.72681856 -0.49144632 1.7806002 1221
0.73919249 -0.48662099 1.7680001 1221
0.73821342 -0.49157527 1.7860001 1221
0.73878002 -0.48079336 1.7590001 1221
0.72168082 -0.47853869 1.768 1221
0.72387749 -0.4804824 1.7770003 1221
0.72403812 -0.46304768 1.7679999 1221
0.73750865 -0.48325336 1.7680001 1221
0.73793656 -0.48001274 1.7360002 1221
0.74910271 -0.48218185 1.7353752 1221
0.75962764 -0.48360351 1.7530001 1221
0.76950103 -0.48662099 1.7680001 1221
0.74568975 -0.47795177 1.7538573 1221
0.76074427 -0.47707066 1.7589999 1221
0.74929529 -0.47651812 1.768 1221
0.76108193 -0.48325336 1.7680001 1221
0.76504517 -0.48449546 1.7409999 1221
0.76500005 -0.48500004 1.7500001 1221
0.77286863 -0.48662099 1.7680001 1221
0.77286863 -0.48325336 1.7680001 1221
0.72537816 -0.42718574 1.7590001 1221
0.67032003 -0.34048003 1.5960001 1222
0.67956007 -0.35287812 1.618 1222
0.67662007 -0.34828287 1.6110001 1222
0.67336005 -0.34048003 1.5960001 1222
0.68122292 -0.35135144 1.6110001 1222
0.68122292 -0.34828287 1.6110001 1222
0.69594002 -0.38347718 1.6570001 1222
0.68978578 -0.37898573 1.6650001 1222
0.69868541 -0.37621868 1.6436666 1222
0.70540863 -0.38347718 1.6570001 1222
0.70405722 -0.38532859 1.6650001 1222
0.68309021 -0.35786095 1.6313334 1222
0.67982292 -0.35152572 1.626 1222
0.69872957 -0.36103621 1.6340001 1222
0.69703436 -0.36883432 1.6409999 1222
0.7066648 -0.36597908 1.626 1222
0.70734924 -0.36570862 1.641 1222
0.6635229 -0.24915525 1.399 1223
0.66494858 -0.24301334 1.4020002 1223
0.66330004 -0.24388 1.4070001 1223
0.6690715 -0.24971431 1.4250001 1223
0.67325145 -0.25485429 1.4310001 1223
0.6551553 -0.26813114 1.567 1224
0.6537143 -0.25702858 1.5600001 1224
0.65406996 -0.25899592 1.5670002 1224
0.67140579 -0.26650098 1.5460001 1224
0.66470861 -0.26713142 1.5600001 1224
0.66410959 -0.27012098 1.567 1224
0.66134679 -0.25734463 1.5555 1224
0.66112483 -0.26265907 1.567 1224
0.67033732 -0.26737893 1.5530002 1224
0.67148769 -0.25735435 1.553 1224
0.65845674 -0.2735762 1.5740002 1224
0.65508384 -0.26533145 1.5740001 1224
0.66857529 -0.28032193 1.5740001 1224
0.66793287 -0.27603894 1.5740002 1224
0.67607051 -0.27732384 1.5740001 1224
0.65366292 -0.25072002 1.5670002 1224
0.66404384 -0.2488324 1.5460001 1224
0.66248649 -0.24696437 1.556182 1224
0.66311467 -0.24624288 1.567 1224
0.66708577 -0.23771429 1.5600001 1224
0.66858673 -0.23579621 1.567 1224
0.67178345 -0.24522611 1.553 1224
0.67261779 -0.23408283 1.555625 1224
0.67007911 -0.22833431 1.567 1224
0.67778289 -0.22493716 1.5600001 1224
0.67455626 -0.22833431 1.567 1224
0.65658289 -0.2458438 1.5740002 1224
0.65843761 -0.24097608 1.5800002 1224
0.66407812 -0.24584383 1.5740001 1224
0.66772759 -0.2370363 1.5763335 1224
0.66969955 -0.22598146 1.5740002 1224
0.67756957 -0.22485715 1.5740001 1224
0.69958955 -0.27658191 1.5530001 1224
0.67582291 -0.2650286 1.5460001 1224
0.67582291 -0.25913906 1.5460001 1224
0.68634015 -0.26682746 1.5565001 1224
0.68637818 -0.25784171 1.5585001 1224
0.69557506 -0.26855281 1.5530001 1224
0.695737 -0.25756893 1.5543125 1224
0.70180196 -0.28013718 1.5320001 1224
0.70674288 -0.27828002 1.5460001 1224
0.70846385 -0.27658191 1.5530001 1224
0.70894611 -0.26936701 1.5540498 1224
0.70698482 -0.25735435 1.553 1224
0.68544292 -0.24628404 1.5578125 1224
0.68419355 -0.23468007 1.5573077 1224
0.69395715 -0.23430383 1.567 1224
0.69710499 -0.24621195 1.557375 1224
0.69808871 -0.23467658 1.5595624 1224
0.68293339 -0.22632383 1.5600001 1224
0.69097245 -0.22684193 1.567 1224
0.70051432 -0.22508572 1.5600001 1224
0.70224828 -0.22269641 1.5670002 1224
0.70968771 -0.24736002 1.5460001 1224
0.71410483 -0.24588764 1.5460001 1224
0.70775038 -0.24491908 1.553875 1224
0.71117681 -0.23458183 1.5589498 1224
0.71264768 -0.22681904 1.5600001 1224
0.71559674 -0.22161858 1.567 1224
0.72604346 -0.2208724 1.5670002 1224
0.69525838 -0.22335811 1.5740001 1224
0.70245379 -0.22215886 1.5740001 1224
0.71504575 -0.22335811 1.574 1224
0.73811626 -0.39546442 1.618 1225
0.75198483 -0.39294288 1.618 1225
0.74031764 -0.38545826 1.618 1225
0.74119812 -0.37599239 1.618 1225
0.74941659 -0.38780639 1.618 1225
0.73193812 -0.4183248 1.6409999 1225
0.73456311 -0.38999632 1.6445556 1225
0.7438305 -0.39901528 1.626 1225
0.7564466 -0.39899698 1.6276003 1225
0.76639247 -0.40989432 1.649 1225
0.7366038 -0.38662669 1.626 1225
0.73892957 -0.37878096 1.63 1225
0.76034862 -0.3917886 1.626 1225
0.76469785 -0.39864066 1.6286668 1225
0.76344573 -0.3917886 1.626 1225
0.72346812 -0.24313252 1.5580002 1226
0.72441989 -0.23454158 1.5586874 1226
0.72614288 -0.22545713 1.5600002 1226
0.73617452 -0.23450603 1.5590667 1226
0.74469817 -0.23728859 1.567 1226
0.74652779 -0.23214486 1.5565002 1226
0.75514483 -0.23728859 1.567 1226
0.73048759 -0.21938393 1.5439001 1226
0.74271107 -0.21770203 1.5460002 1226
0.73382896 -0.22450255 1.5576668 1226
0.74494702 -0.22432224 1.5530002 1226
0.75695872 -0.23123369 1.5538752 1226
0.75962198 -0.23728859 1.567 1226
0.76466769 -0.2292524 1.5530001 1226
0.75449008 -0.21749172 1.5460001 1226
0.75238675 -0.21055049 1.5460001 1226
0.7623989 -0.21702895 1.5460001 1226
0.75579333 -0.22481525 1.5530001 1226
0.76565367 -0.22432224 1.5530001 1226
0.70188612 -0.48283175 1.7830001 1227
0.71950293 -0.47116384 1.7860001 1227
0.70603341 -0.48721433 1.7950001 1227
0.71202993 -0.48482862 1.8073335 1227
0.71326387 -0.47377434 1.809 1227
0.71287149 -0.48037621 1.7950001 1227
0.71800005 -0.47225598 1.7950001 1227
0.71988195 -0.4694218 1.804 1227
0.7209543 -0.46540481 1.7770002 1227
0.74095118 -0.4810285 1.7817647 1227
0.73504764 -0.46356577 1.7679998 1227
0.73811996 -0.46830603 1.7770002 1227
0.75649434 -0.47555909 1.7770001 1227
0.7537865 -0.47149736 1.7770001 1227
0.66786766 -0.39875147 1.723 1227
0.67783338 -0.40506667 1.715 1227
0.67689288 -0.40900737 1.7229998 1227
0.67492974 -0.39581117 1.715 1227
0.67349374 -0.39640722 1.7229998 1227
0.68273342 -0.40343335 1.715 1227
0.68792373 -0.41005579 1.7229998 1227
0.68567336 -0.39493999 1.715 1227
0.69412291 -0.40203336 1.723 1227
0.67296511 -0.37990165 1.7128824 1227
0.67114955 -0.38343588 1.723 1227
0.67677563 -0.3680422 1.7229997 1227
0.68456423 -0.37976187 1.7114 1227
0.68545562 -0.37076673 1.715 1227
0.6892001 -0.36675286 1.7229997 1227
0.6892001 -0.35608664 1.7229997 1227
0.66167051 -0.43374288 1.7860001 1227
0.64310479 -0.41801813 1.7770001 1227
0.6538794 -0.41702351 1.7680001 1227
0.65492964 -0.42298219 1.7795717 1227
0.63551956 -0.41610247 1.8062223 1227
0.66272545 -0.44048735 1.7950001 1227
0.6454311 -0.41978797 1.8040003 1227
0.66158575 -0.43250954 1.7950001 1227
0.65974861 -0.42952383 1.8040001 1227
0.66880006 -0.43949717 1.8240001 1227
0.67135626 -0.42062861 1.7320001 1227
0.66341341 -0.43155718 1.7770001 1227
0.6604746 -0.41065493 1.7410001 1227
0.66056925 -0.41645217 1.753 1227
0.66878146 -0.41385582 1.7381874 1227
0.66722459 -0.39976794 1.7350001 1227
0.66005337 -0.41926861 1.7680001 1227
0.66341341 -0.42648003 1.7770001 1227
0.68188637 -0.42246255 1.7350001 1227
0.69235343 -0.42135715 1.7350001 1227
0.7021594 -0.43042922 1.7540001 1227
0.7058953 -0.4473505 1.7860001 1227
0.69709718 -0.43610668 1.7680001 1227
0.69669682 -0.43719849 1.7770001 1227
0.71225148 -0.44284195 1.7680001 1227
0.71223307 -0.44937059 1.7820002 1227
0.70888382 -0.43947431 1.7680001 1227
0.70572293 -0.44171146 1.7770001 1227
0.67685467 -0.41513023 1.7320002 1227
0.69787925 -0.41555429 1.7356001 1227
0.70774293 -0.45131433 1.7950001 1227
0.70914388 -0.45916098 1.804 1227
0.70603341 -0.44618574 1.7950001 1227
0.71800005 -0.45815241 1.7950001 1227
0.72160006 -0.46216765 1.8040001 1227
0.69444954 -0.36454478 1.7320001 1227
0.68800342 -0.37680477 1.6455715 1227
0.69698864 -0.38811433 1.6980001 1227
0.69321245 -0.38262764 1.6810001 1227
0.70022291 -0.38973147 1.6980001 1227
0.70560956 -0.40531525 1.723 1227
0.69651407 -0.39271078 1.7127501 1227
0.70331228 -0.4007206 1.7229999 1227
0.71053243 -0.39875147 1.723 1227
0.68609428 -0.36883429 1.6409999 1227
0.69698864 -0.37841144 1.6980001 1227
0.70151663 -0.37808806 1.6980002 1227
0.69770414 -0.37994424 1.7129999 1227
0.69906676 -0.3707667 1.715 1227
0.70188016 -0.36623076 1.7229997 1227
0.70723337 -0.3822 1.715 1227
0.71053243 -0.36757335 1.723 1227
0.69537151 -0.35253716 1.6980001 1227
0.69612676 -0.35378003 1.7149999 1227
0.6974048 -0.35936859 1.723 1227
0.71608907 -0.43166074 1.7567502 1227
0.721793 -0.44677082 1.7679998 1227
0.7209543 -0.45355809 1.7770001 1227
0.72908956 -0.44957718 1.7680001 1227
0.73618579 -0.4552505 1.7770001 1227
0.70601535 -0.41265786 1.7370001 1227
0.71714097 -0.42120075 1.7536001 1227
0.70434672 -0.40413335 1.7320001 1227
0.72537816 -0.42216003 1.7590001 1227
0.60906768 -0.40721527 1.8430001 1228
0.6186738 -0.40670863 1.8372859 1228
0.66622674 -0.38234195 1.7229998 1228
0.67661941 -0.35718066 1.7229998 1228
0.63445526 -0.40652764 1.7860001 1228
0.64957362 -0.40415126 1.7589999 1228
0.64153147 -0.40579811 1.7680001 1228
0.64098334 -0.40968063 1.7800001 1228
0.64700383 -0.40874481 1.7679999 1228
0.62885338 -0.41290098 1.8140001 1228
0.63537306 -0.41085556 1.7950001 1228
0.63369429 -0.41897148 1.8330001 1228
0.6410715 -0.41199526 1.7950001 1228
0.628061 -0.3855924 1.7680001 1228
0.63110083 -0.39436993 1.7840002 1228
0.628061 -0.38054097 1.7680001 1228
0.62996495 -0.38040149 1.7840002 1228
0.63445526 -0.37080765 1.7860001 1228
0.6282143 -0.38530481 1.7590001 1228
0.6282143 -0.37860382 1.7590001 1228
0.65055078 -0.39200577 1.7589999 1228
0.63774294 -0.38938099 1.7679999 1228
0.63972008 -0.39770955 1.7770002 1228
0.63693929 -0.37793872 1.7679998 1228
0.64141244 -0.3740162 1.7770001 1228
0.64852577 -0.39180952 1.7679998 1228
0.64818197 -0.39094004 1.7770001 1228
0.65006274 -0.3775101 1.7679998 1228
0.65156668 -0.37401623 1.7770001 1228
0.64135611 -0.36743471 1.7804615 1228
0.65365493 -0.3660602 1.768 1228
0.65216517 -0.36480924 1.7786366 1228
0.65830243 -0.3579967 1.7815001 1228
0.62677163 -0.40039492 1.8090003 1228
0.62596428 -0.38499281 1.8073335 1228
0.63038695 -0.39960119 1.7950001 1228
0.63054097 -0.40547049 1.8040001 1228
0.62807906 -0.38190764 1.7950001 1228
0.62595052 -0.40301716 1.8240002 1228
0.62845719 -0.41198862 1.8330001 1228
0.63252383 -0.36925712 1.7950001 1228
0.63054097 -0.36767238 1.8040001 1228
0.63081431 -0.35900003 1.7950001 1228
0.63594067 -0.35687295 1.8040003 1228
0.64449054 -0.36412859 1.7950001 1228
0.64620006 -0.36070955 1.7950001 1228
0.65006572 -0.3580178 1.8073334 1228
0.65474766 -0.36070955 1.7950001 1228
0.66505259 -0.36096346 1.8100002 1228
0.67455083 -0.36267719 1.8396667 1228
0.65856528 -0.40080687 1.7409999 1228
0.65388894 -0.40388888 1.7500001 1228
0.65886682 -0.38814506 1.7409999 1228
0.65595633 -0.38732907 1.7519287 1228
0.66091681 -0.37041852 1.7409999 1228
0.65812653 -0.37468728 1.7548002 1228
0.66449475 -0.38450837 1.7327503 1228
0.66769868 -0.37021118 1.735375 1228
0.66025358 -0.36046991 1.7409999 1228
0.66048646 -0.36119658 1.7565455 1228
0.66790527 -0.35806206 1.7371428 1228
0.65921146 -0.36117715 1.7680001 1228
0.66341341 -0.35709241 1.7770001 1228
0.67465526 -0.36619431 1.7320001 1228
0.67795438 -0.35464764 1.732 1228
0.6367768 -0.34855506 1.8100001 1228
0.65131241 -0.3507067 1.8140001 1228
0.65142864 -0.35090289 1.8240001 1228
0.66444319 -0.23288827 1.4000001 1230
0.6706233 -0.2315225 1.397125 1230
0.68346018 -0.23226824 1.4016253 1230
0.66343242 -0.22203048 1.396 1230
0.6608429 -0.22028096 1.3850001 1230
0.67207813 -0.22117878 1.3996003 1230
0.67536008 -0.21574001 1.4070001 1230
0.68364197 -0.22164951 1.4020003 1230
0.68230671 -0.21497335 1.4020001 1230
0.69265479 -0.22198334 1.4020002 1230
0.68859494 -0.21503143 1.4094001 1230
0.69598573 -0.2121743 1.419 1230
0.70025325 -0.21428443 1.4102727 1230
0.70409429 -0.21116073 1.4189999 1230
0.70901024 -0.20647962 1.4250001 1230
0.72015244 -0.23034286 1.3900001 1231
0.72896004 -0.22914001 1.4070001 1231
0.7078867 -0.20356669 1.3790001 1231
0.70892936 -0.20973226 1.4006667 1231
0.72083789 -0.22298478 1.4020002 1231
0.71618098 -0.20519049 1.3900001 1231
0.71731818 -0.21134926 1.4007145 1231
0.71898448 -0.2213978 1.4070001 1231
0.70698482 -0.20370857 1.3980001 1231
0.70618004 -0.20502001 1.4070001 1231
0.72015244 -0.20519049 1.3900001 1231
0.72592449 -0.21141271 1.4020001 1231
0.72973716 -0.22267286 1.4085001 1231
0.73044485 -0.21426003 1.409 1231
0.72147626 -0.20254287 1.3900001 1231
0.6999315 -0.20797144 1.506 1232
0.71031338 -0.20976669 1.5190001 1232
0.70136577 -0.20414668 1.506 1232
0.70704007 -0.20592001 1.5120001 1232
0.71966577 -0.21546002 1.539 1232
0.71136004 -0.20592001 1.5120001 1232
0.72222859 -0.21156192 1.5320001 1232
0.63913149 -0.53776383 1.8040001 1234
0.63851571 -0.53061259 1.8093846 1234
0.63405716 -0.5367772 1.8240001 1234
0.63578236 -0.5358246 1.835 1234
0.63926864 -0.5333029 1.8240001 1234
0.65264428 -0.5409345 1.8100001 1234
0.64278102 -0.53166193 1.7950001 1234
0.64970583 -0.53067225 1.8084445 1234
0.66282988 -0.54304832 1.8140001 1234
0.66167814 -0.53728956 1.8140001 1234
0.65837717 -0.54372573 1.8240001 1234
0.66046172 -0.53260803 1.8240001 1234
0.66880006 -0.54372573 1.8240001 1234
0.67733717 -0.54815435 1.8330001 1234
0.6698423 -0.53642976 1.8240001 1234
0.67628974 -0.5338394 1.8329999 1234
0.64440197 -0.52346861 1.8140001 1234
0.64274287 -0.52635431 1.8240001 1234
0.64958477 -0.52346861 1.8140001 1234
0.665627 -0.51754534 1.8140001 1234
0.65490294 -0.52403814 1.824 1234
0.66880006 -0.52635431 1.824 1234
0.67908293 -0.52895147 1.8330001 1234
0.68257433 -0.54815435 1.8330001 1234
0.68096006 -0.53851438 1.8240001 1234
0.68257433 -0.53418863 1.8330001 1234
0.6316458 -0.55535144 1.863 1235
0.63253289 -0.54914141 1.863 1235
0.63325244 -0.50303435 1.8730001 1235
0.64022005 -0.50930673 1.8830001 1235
0.64022005 -0.49854672 1.8830001 1235
0.65118039 -0.52507377 1.8390001 1235
0.65329129 -0.51162422 1.8410002 1235
0.64265007 -0.48824242 1.8115001 1235
0.64448005 -0.49161148 1.8240001 1235
0.64837587 -0.49845511 1.8390001 1235
0.64795434 -0.48466289 1.8240001 1235
0.65118575 -0.48648539 1.8396667 1235
0.65400726 -0.50025034 1.8100001 1235
0.65803051 -0.49996576 1.8040001 1235
0.66230011 -0.52299714 1.8366364 1235
0.65837717 -0.5089829 1.824 1235
0.65859318 -0.51176029 1.8355001 1235
0.66648382 -0.51129907 1.824 1235
0.65218633 -0.48894069 1.8094544 1235
0.64958477 -0.48200575 1.8140001 1235
0.66282988 -0.48776448 1.8140001 1235
0.65837717 -0.48813719 1.8240001 1235
0.65464288 -0.50102001 1.8330001 1235
0.66185147 -0.48292574 1.8240001 1235
0.66241103 -0.48075736 1.8410002 1235
0.67111629 -0.48929524 1.824 1235
0.66532576 -0.48292574 1.8240001 1235
0.67531061 -0.48250613 1.8370001 1235
0.63696861 -0.55535144 1.863 1235
0.63707906 -0.54354668 1.853 1235
0.63696861 -0.54825431 1.863 1235
0.64871216 -0.51849407 1.8730001 1235
0.65472668 -0.52589905 1.853 1235
0.65469366 -0.52908862 1.8663334 1235
0.65472668 -0.51589876 1.853 1235
0.65381098 -0.51878673 1.8655 1235
0.64560008 -0.51827335 1.8830001 1235
0.64719862 -0.5054667 1.8730004 1235
0.64780587 -0.49117094 1.8722311 1235
0.65257162 -0.50550836 1.865 1235
0.65590328 -0.48648608 1.853 1235
0.65578836 -0.4868193 1.8660773 1235
0.64595878 -0.51181734 1.8830001 1235
0.6438067 -0.49854672 1.8830001 1235
0.66884482 -0.48178002 1.853 1235
0.6825217 -0.48222122 1.8529999 1235
0.67089206 -0.46012259 1.8140001 1235
0.66565931 -0.46745792 1.8417501 1235
0.66234577 -0.44913429 1.835 1235
0.67514259 -0.46655974 1.8405002 1235
0.66995811 -0.4458667 1.8240002 1235
0.67070353 -0.4535366 1.8329999 1235
0.66252816 -0.43964717 1.8355001 1235
0.66860861 -0.43992001 1.8330001 1235
0.6510905 -0.47984478 1.8730001 1235
0.65965587 -0.47861886 1.8710001 1235
0.65994668 -0.47882003 1.8830001 1235
0.66531527 -0.47472098 1.853 1235
0.63212228 -0.37037209 1.8696667 1237
0.6284005 -0.37667572 1.9015 1237
0.62946004 -0.38198003 1.8830001 1237
0.62952954 -0.38421145 1.8940001 1237
0.63215005 -0.37301335 1.8830001 1237
0.63254076 -0.37394914 1.8968573 1237
0.63286197 -0.38847145 1.9150001 1237
0.63250005 -0.39050004 1.9250001 1237
0.62921435 -0.3757048 1.9150001 1237
0.63250005 -0.38500005 1.9250001 1237
0.62777603 -0.36520535 1.904 1237
0.63615435 -0.36487573 1.8990002 1237
0.64562863 -0.36293814 1.9150001 1237
0.64900005 -0.36300004 1.9250001 1237
0.65639621 -0.35769907 1.9360001 1237
0.64560008 -0.36046001 1.8830001 1237
0.65839529 -0.36111429 1.9150001 1237
0.65839529 -0.35564288 1.9150001 1237
0.83488017 -0.37271434 2.6090007 1238
0.8489604 -0.37188604 2.6090002 1238
0.8696667 -0.37271431 2.6090002 1238
0.89185697 -0.39209658 2.6290002 1238
0.86231202 -0.36705849 2.6289999 1238
0.86381435 -0.35679287 2.6290002 1238
0.88495755 -0.37056386 2.6290004 1238
0.90066004 -0.38347432 2.6490002 1238
0.88165396 -0.35084632 2.6290002 1238
0.89939862 -0.35193861 2.6490002 1238
0.90693814 -0.39507717 2.6090002 1238
0.92184681 -0.39436725 2.609 1238
0.90637904 -0.39434999 2.6289999 1238
0.91075152 -0.39104286 2.6490002 1238
0.92474037 -0.38975969 2.6289999 1238
0.9063791 -0.37431955 2.6290002 1238
0.91327435 -0.37559035 2.6490006 1238
0.89886767 -0.34802955 2.6290002 1238
0.91377896 -0.35336825 2.6490006 1238
0.91495627 -0.33469906 2.6490002 1238
0.91508579 -0.33044764 2.6690001 1238
0.9888382 -0.070980959 2.5700002 1239
0.99324387 -0.060211431 2.5700002 1239
0.97660005 -0.026923811 2.5700002 1239
0.96452099 -0.017006667 2.5510001 1239
0.97333652 -0.018765081 2.5700002 1239
0.98149532 -0.026923811 2.5700002 1239
0.98394293 -0.022028573 2.5700002 1239
1.001902 -0.035341907 2.5890002 1239
1.0084772 -0.051780004 2.5890002 1239
0.97888863 -0.0073971432 2.5890002 1240
0.99142009 -0.012423811 2.6090002 1240
1.00108 -0.02219143 2.5890002 1240
1.0013591 -0.01242381 2.6090002 1240
0.97366297 0.0034266668 2.5700002 1240
0.9821763 0.0073971436 2.5890002 1240
0.97888863 0.017260002 2.5890002 1240
0.99142009 0.017393334 2.6090002 1240
0.98875147 0.0049314289 2.5890002 1240
1.0013591 0.00049695245 2.6090002 1240
0.99902004 0.022534287 2.6290002 1240
1.0065315 0.017526668 2.6290002 1240
0.93178576 -0.39756194 2.6090002 1241
0.96657246 -0.40501621 2.6090002 1241
0.94143242 -0.39309812 2.6290002 1241
0.96897435 -0.40812099 2.6290002 1241
0.97398198 -0.39560193 2.6290002 1241
0.98419166 -0.40953398 2.6090004 1241
0.98313755 -0.3983902 2.6090002 1241
0.99887431 -0.41495526 2.6090002 1241
1.0162677 -0.41495526 2.6090002 1241
0.98065883 -0.41646698 2.6290002 1241
0.98828948 -0.39309815 2.6289999 1241
1.0115391 -0.4106248 2.6289999 1241
1.0440886 -0.34302193 2.6290002 1242
1.0606091 -0.3516863 2.6490002 1242
1.0691267 -0.3630524 2.6290002 1242
1.070796 -0.35804477 2.6290002 1242
1.079977 -0.35145345 2.6490004 1242
1.0941648 -0.34894001 2.6289999 1242
1.0334474 -0.33112881 2.6289999 1242
1.0375252 -0.33238643 2.6490002 1242
1.0351862 -0.30852497 2.6289999 1242
1.0347319 -0.31535718 2.6490002 1242
1.0514331 -0.3300021 2.6290002 1242
1.0621229 -0.34058574 2.6490002 1242
1.0516 -0.3104724 2.6290002 1242
1.0709325 -0.3006562 2.6090002 1242
1.0862234 -0.3086839 2.6090007 1242
1.0794226 -0.33229637 2.6490004 1242
1.0709476 -0.30933428 2.6289999 1242
1.079783 -0.31788003 2.6490002 1242
1.0946919 -0.33037108 2.6290004 1242
1.0923972 -0.33554003 2.6490002 1242
1.0924956 -0.31464541 2.6290002 1242
1.0904772 -0.34061527 2.6690001 1242
1.033303 -0.29101971 2.6289999 1243
1.0516 -0.2904419 2.6290002 1243
1.0512424 -0.26504615 2.6289999 1243
1.060441 -0.27667338 2.6490002 1243
1.0480947 -0.25088173 2.6290002 1243
1.0628438 -0.24543798 2.6490002 1243
1.0775173 -0.30081716 2.5890002 1243
1.0684477 -0.28823239 2.6090002 1243
1.0659629 -0.27083907 2.6090002 1243
1.0775173 -0.29342002 2.5890002 1243
1.0869454 -0.29182148 2.6090002 1243
1.0699614 -0.2904419 2.6289999 1243
1.0714988 -0.26764414 2.6290004 1243
1.0930521 -0.2851561 2.6289999 1243
1.0939263 -0.2671923 2.6290004 1243
1.1037501 -0.27373004 2.6490002 1243
1.09578 -0.24847621 2.6090002 1243
1.1094463 -0.22984049 2.6090002 1243
1.0716306 -0.25288478 2.6290002 1243
1.079783 -0.24471717 2.6490002 1243
1.079142 -0.21783145 2.6290002 1243
1.0809296 -0.22591041 2.6490002 1243
1.0937476 -0.24704255 2.6289999 1243
1.0999657 -0.24219431 2.6490002 1243
1.0841496 -0.22283906 2.6290002 1243
1.1042695 -0.22750238 2.6490006 1243
1.1082039 -0.34041241 2.6090002 1244
1.1355363 -0.34041241 2.6090002 1244
1.1405058 -0.35035145 2.6090002 1244
1.1703229 -0.34413952 2.6090002 1244
1.180262 -0.34538192 2.6090002 1244
1.1116827 -0.32749164 2.6090002 1244
1.1268396 -0.32426146 2.6090002 1244
1.1151059 -0.33073047 2.6289999 1244
1.1371469 -0.33175474 2.6289999 1244
1.1613516 -0.3230086 2.5890002 1244
1.1670099 -0.32219085 2.6090002 1244
1.1877162 -0.32053432 2.6090002 1244
1.1951706 -0.30314097 2.6090002 1244
1.1542562 -0.32674715 2.6290002 1244
1.166401 -0.33427858 2.6490002 1244
1.1767906 -0.33200514 2.6289999 1244
1.1857429 -0.33554003 2.6490002 1244
1.1749128 -0.31235024 2.6289999 1244
1.1987684 -0.31102878 2.6290004 1244
