# .PCD v0.7 - Point Cloud Data file format
VERSION 0.7
FIELDS x y z normal_x normal_y normal_z curvature
SIZE 4 4 4 4 4 4 4
TYPE F F F F F F F
COUNT 1 1 1 1 1 1 1
WIDTH 656
HEIGHT 1
VIEWPOINT 0 0 0 1 0 0 0
POINTS 656
DATA ascii
439.03 5180.8999 14485.29 0.12943527 0.67854142 -0.24960303 0.73448873
491.89999 5168.2002 14471.99 -0.042868298 0.3985979 0.033707172 0.402311
495.85999 5167.8198 14471.99 -0.18358982 -0.2504901 -0.062899023 0.3168703
538.12 5136.4502 14418.46 -0.1176637 0.070597351 0.30533785 0.33475354
795.10999 5123.8101 14469.4 0.095263436 0.3466934 -0.51468831 0.62783396
797.90997 5122.3599 14466.58 0.13236368 0.3303304 -0.46944162 0.58907872
974.34003 4996.4702 14203.4 -0.0059651881 0.52331638 -0.7478689 0.91279984
1140.45 4954.5601 14196.05 0.48423219 0.12680617 -0.76329207 0.9127844
1151.98 4956.79 14200.82 0.15118138 0.14499928 0.44254619 0.48962
1155.35 4954.0498 14199.81 0.32105735 0.55037367 -0.76066899 0.99227333
1210.1 4947.98 14197.36 -0.017071709 0.20583235 0.39612079 0.44673264
1216.51 4947.4902 14200.28 0.35743195 0.008496955 -0.81992716 0.89448887
1282.76 4928.6001 14194.54 0.35974923 0.13004199 -0.80001628 0.88676739
1288.03 4698.48 13584.84 0.46322981 0.34329367 -0.53502917 0.78656757
485.04001 5180.3198 14471.07 0.11153211 0.28747022 -0.050954729 0.31252989
492.92999 5179.0601 14469.66 0.0061521307 -0.81786418 0.24522787 0.85385972
496.81 5177.6699 14466.84 0.1387437 0.52543509 -0.46759981 0.71692497
529.53998 5159.5601 14417 -0.12523118 -0.65861285 0.66241693 0.94247013
670.87 5132.1401 14406.35 0.44339198 0.37492612 -0.81403881 0.99991256
692.90002 5132.1299 14416.57 0.10322915 0.38797694 -0.27641833 0.48743147
725.85999 5127.5601 14423.06 -0.38772365 -0.48629788 0.50113326 0.79871762
781.26001 5138.5698 14464.92 0.13421458 0.26191372 -0.69433033 0.75412661
824.15997 5138.5601 14465.84 0.21782598 0.32649842 -0.64976215 0.75910491
872.10999 5128.8301 14476.15 0.23412469 -0.30393282 -0.0609442 0.38846329
976.90997 5007.0698 14199.5 -0.13687634 0.36770523 -0.47084591 0.61289328
1035.5601 5000.8398 14197.54 0.028125629 -0.21651453 0.41349721 0.46759978
1038.8101 4999.6499 14196.12 0.0033992231 0.093861938 0.32374823 0.33709723
1078.61 4989.1201 14196.86 -0.1812553 -0.24980441 0.64879256 0.71846187
1081.1899 4987.1699 14197.35 0.19771026 -0.08592853 -0.66887915 0.70276052
1097.55 4986.3799 14196.37 0.14930829 0.13494031 -0.44768551 0.49084029
1129.97 4974.4199 14196.43 -0.064809695 0.087606907 -0.45797241 0.47075897
1148.85 4973.5898 14195.2 0.43744603 0.28455544 -0.4919652 0.71718937
1175.79 4959.9199 14194.49 0.14097746 -0.21332395 -0.38723338 0.46403819
1179.23 4959.6201 14195.9 -0.33908552 -0.029656947 0.72374624 0.79979193
1181.9 4958.1499 14197.89 0.31138211 0.23160151 -0.49537462 0.62928063
1304.8 4937.4399 14197.54 0.1769516 0.13475819 -0.41642681 0.47210479
339.94 5231.8701 14542.68 0.0093699973 0.82428038 -0.52003622 0.97466075
443.37 5190.6602 14478.48 -0.31598109 -0.46814027 0.57344931 0.80488724
494.57001 5190.9199 14470.25 0.028945267 -0.69813049 0.17293629 0.71981317
533.20001 5161.0801 14417.92 -0.29294205 -0.12734836 0.42661583 0.53294814
783.06 5150.3999 14465.51 -0.18377621 -0.80610347 0.37453818 0.90766478
786.25 5148.1401 14462.84 0.069233775 0.48216915 -0.57543546 0.75392729
963.85999 5022.1001 14201.56 0.20910041 0.53685832 -0.72764516 0.92812032
975.31 5016.7798 14199.47 0.01780761 0.34748572 -0.13380405 0.37278274
1001.91 5019.9102 14209.48 -0.03086701 0.39321747 -0.13764694 0.41775522
1106.38 4992.29 14198.5 0.052580565 -0.0069226325 0.31338575 0.31784159
1151.53 4985.1899 14194.11 0.33879384 0.19346078 -0.32845828 0.50999331
1197.3199 4972.1099 14196.5 -0.084067106 -0.20706457 0.25050744 0.33570373
1200.0601 4968.8301 14195.82 0.25519311 0.29973421 -0.77232754 0.86686444
1202.6 4966.8101 14196.31 0.21879332 0.21217448 0.0093107224 0.30491838
1252.4 4959.9302 14196.01 0.076517396 0.27820614 -0.88237846 0.92835623
1254.5 4956.2402 14193.92 0.35266653 0.34978667 -0.69503367 0.85428107
1318.36 4944.6001 14198.68 0.022369236 -0.30371433 0.65014386 0.71793443
480.28 5204.79 14472.23 -0.026352884 -0.32797974 0.45116776 0.55840629
483.26999 5204.5098 14472.23 -0.01506584 -0.19656904 0.81160963 0.83521044
807.58002 5155.21 14467.33 -0.23959538 -0.18836537 0.71155703 0.77408063
851.13 5154.8501 14468.15 -0.32911617 -0.13030949 0.83482605 0.90677041
860.96002 5149.8901 14467.75 -0.4514803 -0.39641368 0.71392024 0.93309182
864.45001 5146.5 14468.74 0.46519828 0.20649156 -0.85120773 0.99176753
944.59998 5039.1201 14201.72 0.092661858 -0.17525899 0.27572161 0.33959436
947.19 5036.9102 14199.14 0.051434904 0.32688168 -0.44471589 0.55431885
1011.19 5026.21 14208.19 0.17300299 0.38315961 -0.15463331 0.44794285
1014.17 5023.54 14208.93 -0.04824229 0.32337338 -0.004822433 0.32698762
1025.66 5025.8301 14195.91 -0.08910732 -0.44675243 0.80953127 0.92890728
1034.24 5016.29 14200.37 -0.21655765 -0.71352851 0.63497305 0.97939312
1116.33 5000.8799 14197.88 0.10473578 -0.38787669 0.67105651 0.78213471
1169.79 4983.5601 14194.78 0.099406019 0.06387651 0.31478244 0.3362287
1264.59 4964.0698 14198.37 0.38498828 0.3052054 -0.34271234 0.59901422
1284.89 4966.0601 14194.26 -0.36460477 -0.57389045 0.62275177 0.92201227
386.64001 5229.4302 14496.99 -0.20542818 -0.30593365 0.58298624 0.68968767
450.07001 5221.9199 14475.11 -0.25589886 -0.40286678 0.020084053 0.47769159
484.23999 5214.8701 14468.47 -0.076594219 0.12168005 0.31158021 0.3431544
547.09003 5178.8999 14406.11 -0.10372899 0.63673162 -0.69987452 0.95184624
550.38 5176.8301 14403.54 0.232429 -0.48482674 0.7521162 0.92453176
841.65002 5168.3501 14463.89 0.23314703 0.5091871 -0.22191134 0.60238999
852.90002 5165.6201 14465.8 0.11017454 0.4664194 0.078205526 0.48559406
862.87 5161.3301 14465.15 -0.1525259 0.28586164 -0.41569424 0.52705097
1071.3101 5027.6401 14196.79 -0.0021954626 0.078797579 -0.36411491 0.37255004
1074.91 5025.6499 14195.63 0.021264687 -0.34341443 0.40978497 0.53507888
1144.48 5004.9902 14194.19 -0.17618957 -0.34171575 0.6100651 0.72110456
1221.55 4992.73 14195.38 0.55248404 0.24610637 -0.69930446 0.92457217
1224.98 4992.2402 14198.45 -0.37262088 0.016718596 0.47175729 0.601399
1260.88 4979.4302 14196.62 0.3662439 0.21406958 -0.6352163 0.76384562
1313.73 4971.21 14196.3 0.29864922 0.24073435 -0.52215409 0.64791149
270.35001 5298.3999 14625.61 0.41158688 0.10956873 -0.87110651 0.96965748
380.16 5244.3398 14499.86 -0.20291787 -0.25731057 0.68747723 0.76158345
430.97 5228.7798 14476.51 0.0077638328 0.25560725 -0.2595017 0.36433014
728.84998 5166.5801 14399.3 0.21774694 0.065498918 -0.71685952 0.75205809
858.94 5177.4502 14466.11 -0.19857283 -0.26258358 0.58227789 0.66890126
1004.95 5052.7998 14196.01 0.28601784 -0.092719585 -0.77676082 0.83292282
1169.48 5010.29 14198.47 0.28408712 0.56868565 -0.59677672 0.87192392
1190.76 5005.98 14198.23 -0.06435822 0.29130664 -0.2438363 0.38530207
1208.86 5003.1699 14195.99 -0.43679565 -0.39158776 0.064072669 0.59011585
1224.22 5003.6401 14194.5 0.20566177 0.40608081 -0.55345047 0.71659321
1234.76 4998.9399 14195.25 -0.25858787 -0.37657511 0.81698 0.93601966
1247.96 4992.73 14197.98 0.2952736 0.24112941 -0.25186628 0.45690975
1319.28 4978.71 14194.75 0.19126563 0.24098168 -0.2393517 0.38979989
1330.88 4976.1899 14196.25 0.11212259 -0.16258463 -0.2258831 0.30004734
399.13 5247.8301 14485.11 0.0049657822 -0.14253935 -0.26659408 0.30234838
428.89001 5240.4199 14475.56 -0.22436953 0.85023403 -0.42478973 0.9765684
452.35999 5242.6099 14467.56 -0.091014221 -7.5668097e-05 0.75694966 0.7624017
464.14999 5238.48 14471.98 -0.087940142 0.53781772 -0.33972806 0.64218104
501.34 5219.6401 14419.04 0.027671844 0.19006088 -0.26414949 0.32659426
768.57001 5178.6299 14409.07 0.29371777 0.14317097 -0.55442804 0.64355147
860.29999 5185.6602 14456.6 0.077805892 -0.097122252 0.33772025 0.35991868
970.48999 5072.4399 14207.58 0.041627005 -0.19601588 0.72020358 0.74756151
1091.4399 5046.1499 14196.78 -0.13807337 -0.52456665 0.74389112 0.9206565
1094.4301 5043.5801 14195.86 0.04663229 -0.01216653 -0.45088267 0.45345098
1124.28 5034.23 14196.85 0.16074626 -0.0011894405 0.26264739 0.30793574
1131.22 5033.54 14194.95 -0.16855839 -0.5391897 0.64302838 0.85593396
1135.27 5031.2402 14195.44 0.087132595 -0.11666265 0.50108224 0.52181
1175.4 5020.4399 14197.59 0.078912556 0.39140466 -0.64907777 0.76205426
1214.08 5012.1099 14195.69 0.036842853 0.30152655 -0.70023131 0.76328206
1264.45 5005.6001 14196.78 0.22282565 0.13972071 -0.2055245 0.33378655
1266.66 5002.23 14197.77 0.28492475 0.27313823 -0.22491449 0.45428309
1270.03 4999.4502 14196.85 0.18593609 0.41626078 -0.65050173 0.79435366
1320.08 4993.3301 14196.03 0.21782394 0.23425803 -0.87266374 0.92944396
375.22 5267.3599 14494.94 0.052958921 0.14876777 0.27921897 0.32077986
393.62 5262.1699 14486.55 -0.16716874 0.65507746 -0.39571279 0.78336483
430.29001 5251.29 14473.28 -0.01585139 0.73785722 -0.59224755 0.94627786
808.62 5184.6099 14409.63 0.35903475 0.68050104 -0.40903065 0.87137461
927.38 5092.7402 14198.29 -0.43694532 -0.55666208 0.60658783 0.9320637
973.28998 5084.4302 14209.59 0.40893963 0.49436367 -0.72730565 0.96984565
984.02002 5079.77 14208.92 0.22694412 0.37115681 0.058853507 0.43900424
1075.92 5063.6099 14196.64 0.33351785 0.51303011 -0.78651649 0.99651504
1094.42 5057.5601 14197.38 -0.089206651 -0.6524564 0.50741988 0.83134353
1137.98 5043.23 14197.46 -0.084559307 -0.15772459 0.32268074 0.36898535
1142.29 5044.3398 14196.72 -0.036959507 0.30095983 -0.16649061 0.34592187
1146.13 5043.3101 14198.37 0.14107005 0.10924914 0.253351 0.30987558
1195.84 5027.3301 14195.04 0.24073669 0.0067714751 0.32898641 0.40771568
1283.86 5005.5801 14195.04 0.29232886 0.66649747 -0.34650108 0.80606329
1286.49 5003.8901 14198.7 -0.032542363 0.63529432 -0.17077276 0.65865105
376.01001 5278.4502 14490.89 0.010774508 -0.053186506 0.31952509 0.32410055
394.39999 5272.5601 14482.75 -0.167689 0.32616884 -0.37644461 0.52556282
397.45001 5272.5098 14481.09 0.08534047 -0.24023737 0.25746721 0.36233458
401.34 5270.3101 14480.19 -0.016453579 -0.056132168 -0.34119833 0.34617603
481.01999 5245.7202 14418.46 0.075829469 -0.48453999 0.65368056 0.8172071
503.92999 5241.2798 14414.39 0.11061881 0.44033125 -0.23664585 0.51198572
623.03998 5154.0498 14205.78 0.079074875 0.31465113 -0.12642223 0.34819642
635.66998 5150.7798 14203.21 0.0988601 -0.11315152 0.385993 0.41420668
923.84003 5095.46 14197.55 0.23827299 0.26762563 -0.47254121 0.59303683
975.60999 5096.5298 14211.59 0.34451866 0.069381982 -0.10543451 0.36691064
1043.76 5072.2598 14197.55 0.23503828 -0.12288725 -0.42253202 0.49887633
1060.08 5077.6001 14197.73 0.33060899 0.00057443976 -0.87302947 0.9335326
1155.46 5050.7798 14196.55 -0.34654129 -0.56666154 0.68421048 0.95359325
1168.4301 5053.9399 14196.07 0.24325311 -0.039546788 -0.8513211 0.88627517
1170.45 5049.4302 14195.81 -0.25198701 -0.27352372 -0.021499366 0.37252504
1173.86 5046.54 14196.55 -0.25292158 -0.12943348 0.1869666 0.34011596
1287.27 5016.8701 14195.64 -0.28255904 0.025873333 0.4998571 0.57477486
376.79001 5289.3701 14488.48 -0.12777098 -0.58123928 0.7699849 0.97316045
414.23999 5285.6499 14477.42 0.15146393 0.18630271 -0.33135957 0.40920556
455.60001 5280.1401 14471.7 0.048036784 0.0081161559 0.50733483 0.50966853
604.85999 5161.4502 14213.67 0.46833798 0.21875405 -0.76751184 0.92534769
811.81 5205.0801 14402.07 0.053102665 -0.33675912 0.040152997 0.34327665
840.73999 5209.98 14408.43 -0.21409614 -0.29841095 0.20462033 0.4204233
920.46002 5113.1201 14201.22 -0.08408995 -0.29502261 -0.013015032 0.30704862
922.83002 5109.3999 14200.81 0.17845462 0.023546189 -0.86176372 0.88036197
1041.91 5080.5601 14185.03 0.094216079 -0.3217473 0.55082959 0.64483428
1139.46 5067.8901 14196.65 0.16910958 -0.046622694 0.25934458 0.31309956
1147.87 5066.6899 14196.4 0.049587049 -0.69491643 0.51828289 0.86832303
1176.17 5056.48 14192.83 0.30226257 0.17002624 -0.72179222 0.80078435
1179.86 5054.7798 14194.83 -0.35079473 -0.03939119 0.74584049 0.8251586
1186.9399 5052.2598 14196.74 0.026224896 -0.1434252 -0.2857762 0.3208217
1250.41 5045.6899 14196.81 -0.19877659 -0.38273981 0.85695481 0.95936096
1254.4301 5043.29 14197.31 0.24155281 0.50730765 -0.52988428 0.77232516
1290.3199 5028.7798 14197.65 -0.085646808 -0.35927978 -0.10388404 0.38367856
1323.4301 5017.7002 14195.33 0.39596057 0.18545209 -0.79787487 0.90982503
251.3 5358.96 14629.86 0.05102782 0.40224081 -0.77265066 0.87257695
331.10001 5316.3398 14510.62 -0.12150937 -0.60375351 0.74766946 0.96865499
388.04001 5296.71 14480.6 0.11839738 -0.022317976 0.30106413 0.3242771
452.23001 5282.52 14470.93 -0.34280172 -0.55292749 0.58054876 0.8719396
569.64001 5178.48 14208.93 0.19644654 0.30154479 -0.57006669 0.67416358
584.67999 5173.6699 14206.77 0.19417711 -0.30557942 0.78042114 0.86031431
603.40002 5174.71 14215.41 -0.18579665 -0.16506255 0.77984369 0.81848776
642.22998 5175.2998 14208.59 0.20585895 0.019515574 0.34183398 0.39951125
694.87 5161.5698 14204.61 0.12792431 0.10199538 0.42012122 0.45085421
900.20001 5127.3198 14202.3 -0.13759768 -0.67961937 0.63630736 0.94111776
903.64001 5126.71 14202.3 -0.05632209 0.18832693 0.42116135 0.46477529
954.04999 5127.54 14210.1 -0.098440439 -0.029151976 0.51344836 0.52361208
1063.11 5092.0801 14172.83 0.41416028 0.13506103 -0.33548802 0.54983854
1098.25 5091.8198 14196.23 -0.25592095 -0.65869987 0.68284833 0.98268145
1101.92 5092.25 14197.39 -0.30896017 -0.71539015 0.46270213 0.90627408
1121.36 5089.9302 14198.3 0.3455227 0.28086084 -0.6444301 0.78329998
1192.3 5062.0098 14194.41 0.050514013 0.096449316 0.35744387 0.37365791
1204.42 5061.2402 14193.66 0.091185391 0.081088752 0.37974963 0.39887333
1225.3101 5056.3901 14192 0.22620039 0.33338809 -0.44527009 0.60048288
1239.1 5060.2598 14194.33 -0.40347135 -0.15156595 0.79368043 0.90315562
1242.45 5059.27 14195.98 -0.39762586 -0.18314931 0.76566333 0.8819809
1276.09 5049.6499 14194.83 0.11275096 0.33946422 -0.77965224 0.85779154
1278.23 5045.9199 14192.66 0.22872312 0.33006361 -0.75884056 0.8585425
1281.47 5042.4502 14192 0.20164268 0.24960589 -0.83985144 0.89906251
1285.3 5041.3101 14193.66 0.34061563 0.37640965 -0.82134968 0.96556646
1332.38 5037.9102 14193.83 0.067209512 0.011271477 0.32131916 0.32846639
1334.76 5035.1699 14194.58 -0.4620561 -0.41667208 0.63872063 0.89167011
359.20999 5315.6802 14492.29 0.2137198 0.21844232 -0.61932385 0.69061941
397.48001 5306.9702 14478.19 0.11542965 -0.43850201 0.28780866 0.53706783
400.5 5306.2202 14476.78 -0.015395701 0.2166149 -0.23997386 0.32364565
488.13 5278.7598 14415.85 -0.020234667 -0.58487403 0.65063006 0.87510371
567.62 5192.1201 14207.34 0.2376484 0.17944393 -0.85153091 0.90209854
570.82001 5189.1499 14206.59 0.27068442 0.37382248 -0.77352631 0.9007532
699.97998 5173.3101 14206.59 0.17461699 0.21773599 -0.86492902 0.90884668
945.59003 5142.3398 14211.82 0.073698357 -0.43881989 0.70062923 0.82998532
1042.67 5104.1499 14160.2 0.012233268 -0.73120463 0.48187625 0.8757937
1153.08 5089.6899 14197.55 0.12586014 -0.4046458 0.48573649 0.6446076
1207.15 5072.71 14194.23 0.19059151 -0.38031876 0.60848308 0.7424413
1238.33 5073.9502 14194.3 -0.21190853 -0.19334866 0.71007949 0.76583403
1281.38 5058.3501 14196.05 -0.0068614483 -0.051854819 0.46541709 0.46834716
1335.25 5048.7798 14192.89 0.30488196 0.35382578 -0.58416164 0.74792415
375.64001 5323.5801 14482.48 -0.093877211 0.065439194 0.4584226 0.47248968
379.67001 5322.5898 14482.74 -0.13023014 -0.33877289 0.37472525 0.52167612
401.32001 5317.1201 14474.36 0.18479526 0.70682293 -0.51521415 0.89397627
405.39001 5316.6699 14476.12 0.063928023 -0.20089182 -0.34856012 0.40735546
435.62 5310.0698 14471.16 -0.21356642 0.36761203 -0.67866105 0.80083084
698.37 5183.8301 14202.83 0.14312464 0.47879356 -0.66412902 0.83114094
701.34998 5183.4302 14202.83 -0.10815419 -0.28581452 0.61916828 0.69047564
889.25 5151.9199 14202.18 -0.1694122 -0.61720461 0.71631503 0.96059841
908.22998 5149.8301 14203.34 0.18135408 0.37330276 0.066321373 0.42028892
996.51001 5120.5898 14168.99 0.044234566 -0.14370519 0.51521325 0.53670532
1007.69 5117.8101 14161.11 -0.1401709 -0.027560174 0.42994699 0.45305833
1140.48 5102.1299 14195.7 0.23850968 0.50340748 -0.79718506 0.97252762
1143.52 5101.98 14197.11 -0.16342086 0.045304686 0.33747625 0.37768918
1188.54 5089.75 14196.2 -0.078024283 -0.29767647 0.42441741 0.52424157
1262.63 5076.25 14193.04 -0.037431389 0.03595525 -0.39889798 0.40226045
1284.51 5068.6499 14193.79 0.41798383 0.20327157 -0.78470403 0.91202533
274.89999 5367.3198 14549.96 -0.024253219 0.28766662 -0.4460403 0.53131181
329.48999 5348.3101 14500.5 -0.067112312 -0.26945969 0.69101816 0.74472725
395.48999 5328.3701 14473.69 0.099520132 -0.5198583 0.7298122 0.90154463
399.17001 5329.4902 14473.17 -0.14355455 0.064919591 0.30395815 0.34236386
486.66 5301.6499 14409.21 -0.075432584 0.73597378 -0.67275107 0.99997073
626.28003 5201.8198 14201.33 0.19381756 0.019354671 -0.60512137 0.63569784
677.98999 5205.98 14215.23 0.27869442 0.044540703 -0.43791956 0.52098751
681.78003 5203.98 14217.49 -0.23304673 -0.057215393 0.46108189 0.51978928
887.82001 5164.3101 14201.07 -0.018467382 0.24063699 -0.62574166 0.67067116
891.07001 5162.4902 14199.82 0.018963203 -0.39749745 0.27090982 0.48141038
986.73999 5136.0298 14167.39 -0.11349586 -0.15927258 -0.42429128 0.46719605
1002.68 5131.3198 14163.07 0.037206143 -0.06572029 0.46262842 0.46875209
1103.48 5116.0601 14169.2 0.2255356 0.52259833 -0.10201231 0.57825762
1187.62 5103.4702 14196.25 0.42527986 0.15354304 -0.39487791 0.60030574
1213.09 5095.5098 14195.26 -0.34879166 -0.57353705 0.4034915 0.78320223
1215.71 5093.48 14195.76 0.21442734 0.36001927 0.042574644 0.42119539
1319.7 5078.4902 14195.15 -0.19103569 -0.28059486 -0.083437234 0.34955668
1332.78 5066.9302 14194.75 -0.46320388 -0.19686809 0.84727287 0.98548776
1342.04 5072.46 14196.81 -0.21310523 -0.03283444 -0.2568914 0.33538803
384.73001 5342.9302 14476.71 -0.074739322 -0.29131448 0.63746989 0.70485312
388.35999 5343.3599 14476.46 -0.01991269 -0.79841632 0.5482465 0.96873081
391.82001 5341.3701 14473.9 0.060931433 0.78056085 -0.57840145 0.97341466
403.57001 5340.1099 14470.73 0.22295724 0.76434302 -0.34925076 0.86942869
407.04999 5338.46 14471.25 -0.18108845 -0.27369091 0.41944012 0.53256899
452.98999 5321.3501 14416.05 0.036667019 -0.15124851 -0.28277737 0.32277489
582.78998 5224.2202 14214.47 -0.14686728 -0.34321362 0.34751302 0.51003027
897.16998 5174.1099 14200.12 -0.0018471405 -0.86678481 0.3959012 0.95292026
1045.67 5133.9199 14142.71 -0.11566383 -0.25457031 0.26997578 0.38867861
1156.92 5122.6201 14196.8 -0.010799959 -0.14693698 0.38074026 0.40825269
1228 5110.25 14195.28 -0.25874317 -0.12850486 0.74308103 0.7972647
1231.76 5108.6499 14195.54 -0.40692312 -0.45761368 0.63587159 0.88279635
1268.95 5099.54 14195.54 0.089985162 0.2954753 -0.82676721 0.88257974
1272.0699 5097.48 14194.29 0.17455146 0.22644547 -0.20124301 0.34963483
1288.4301 5096.4302 14198.1 -0.03472589 0.25945354 -0.85236311 0.89165288
1305.11 5084.3701 14194.39 -0.1017153 -0.5500558 0.81305605 0.98689789
1339.13 5075.2202 14197.81 0.070273876 0.023391098 0.36492276 0.37236297
404.39999 5351.0098 14468.29 -0.20963623 -0.063687354 0.26330623 0.34253994
407.95999 5350.4199 14471.71 -0.14532274 0.09577021 0.27743623 0.327508
449.06 5323.5898 14416.95 -0.025591794 -0.51241767 0.80071998 0.95098859
456.70001 5322.77 14418.61 -0.47784853 -0.20272145 0.53371656 0.74450558
628.40002 5215.1602 14175.12 0.47869456 0.17432313 -0.48100334 0.70064348
710.40997 5220.29 14214.9 -0.14615618 0.029593796 0.36427259 0.39361396
751.15002 5209.0801 14202.31 -0.18075776 -0.67023861 0.59997773 0.9175328
758.04999 5207.3999 14202.56 0.12555006 0.17486006 -0.85517466 0.88185179
762.12 5207.3301 14203.97 -0.13255668 -0.35105374 -0.025466055 0.37610972
882.46002 5195.77 14202.94 0.17093115 0.21024609 -0.54479551 0.60845953
884.53998 5192.9399 14200.54 0.23382828 0.18076931 -0.5545404 0.62838542
888.07001 5189.5698 14201.55 -0.45151797 -0.4199985 0.72183758 0.94937706
892.02002 5188.73 14203.21 0.35395703 0.51807904 -0.72100711 0.95579427
911.19 5187.02 14207.52 0.074620515 -0.37895316 0.26832461 0.47028908
988.37 5157.8398 14159.35 0.42598373 -0.012305319 -0.7321043 0.84710699
1056.4301 5131.3501 14139.64 -0.16683067 -0.71005583 0.43306288 0.84826601
1203.28 5119.6099 14194.03 -0.058491439 -0.73759127 0.61366004 0.96127039
1215.28 5119.9502 14196.08 -0.19444576 0.062282324 0.39542955 0.4450312
1237.4399 5117.1499 14198.49 0.10319236 -0.093277216 0.34924257 0.37592509
1256.79 5115.5298 14194.06 -0.19763966 -0.64182717 0.55046171 0.86833841
1290.9301 5106.3198 14194.31 0.3313311 0.20489934 -0.80213696 0.89173299
1293.24 5103.0898 14193.67 0.26712054 0.083218157 -0.6777792 0.73325527
1296.78 5100.6201 14195.83 0.17457125 0.24718514 -0.41485116 0.51349497
1310.63 5093.73 14195.44 0.040341213 -0.10597682 0.53212184 0.54407001
1329.0699 5098.48 14195.21 0.30851397 0.27689162 -0.68758166 0.8028813
311.92001 5382.6899 14502.78 0.017430842 0.3607648 -0.38489425 0.52782446
394.06 5364.8999 14471.64 0.17524597 0.43113321 0.024221361 0.46601894
454.94 5344.25 14412.32 -0.070609599 0.10835606 0.34858096 0.37180027
642.63 5231.9199 14168.3 -0.077147096 -0.30170995 0.58812422 0.66548532
1133.92 5144.5801 14159.77 0.39112955 0.17784315 -0.54239923 0.69195914
1148.71 5138.98 14170.33 0.13456467 0.28250289 -0.011081308 0.31311074
1152.16 5138.2002 14170.33 0.17143583 0.4456352 -0.84056234 0.96670884
1246.6899 5123.1401 14197.12 -0.25794309 -0.20283315 0.60694498 0.68996966
1256.46 5129.0098 14195.74 0.052614272 0.13000715 0.34089816 0.36862132
274.39999 5408.27 14523.37 -0.2875914 -0.49065205 0.0036298931 0.56873667
403.10999 5375.1802 14469.18 -0.20900986 -0.157019 0.69704866 0.74445748
568.85999 5268.9399 14213.14 -0.16002727 -0.027947038 0.43309063 0.46255514
572.73999 5266.98 14215.31 0.0016005784 0.16588655 0.40264481 0.43548107
594.17999 5253.2202 14201.59 -0.013751924 -0.23184793 0.2105411 0.31348068
797.26001 5230.2598 14201.82 0.21946719 0.79244757 -0.33309838 0.88718289
886.62 5220.2202 14205.02 0.43242395 0.17783067 -0.65841234 0.80754012
970.60999 5188.8599 14163.86 -0.056029007 0.2942709 -0.85555607 0.90648264
1240.67 5143.4399 14198.41 0.2569713 0.2050676 -0.8547014 0.91575187
1249.27 5133.7202 14193.07 -0.42624462 -0.17235263 0.60165083 0.75721437
313.66 5403.6401 14493.35 -0.18713315 -0.045242935 0.87761998 0.89848906
357.53 5398.5098 14476.31 -0.084806055 -0.24291113 0.20224255 0.32726127
422.06 5372.2598 14420.84 0.23415241 0.18761885 -0.092787236 0.31406632
508.89999 5282.3398 14205.52 -0.19756414 -0.31787804 -0.050357521 0.37764257
554.59998 5274.2402 14214.94 0.037312113 -0.62886518 0.50090319 0.80484009
652.72998 5251.7202 14162.11 -0.18567798 0.017258823 0.38335887 0.42630762
727.44 5254.8701 14196.49 0.48630607 -0.11687979 -0.78973591 0.93479264
909.40002 5223.8599 14210.46 0.17871132 0.72954863 -0.64000976 0.98680872
913.20001 5221.9399 14209.22 -0.06396988 -0.71767795 0.6609273 0.9777416
960.92999 5203.3501 14164.12 0.12421641 -0.54932082 0.7086978 0.90522689
976.12 5196.27 14159.17 0.45687956 0.37124941 -0.59504867 0.83704716
1223.83 5153.77 14196.13 0.096571803 -0.50277495 0.53285217 0.73894531
1302.59 5137.9399 14194.86 0.4175711 0.20695557 -0.70041007 0.84129101
1313.23 5130.3101 14196.64 0.023296535 -0.34444919 0.38724846 0.51879603
1320.11 5128.54 14196.64 0.083998106 0.11453214 0.50584424 0.52540618
248.02 5433.8198 14543.68 -0.062698558 0.25441924 -0.3140409 0.40900114
310.84 5417.9502 14492.98 -0.29326791 -0.49895886 0.69103551 0.90138566
555.89001 5286.5298 14216.83 0.030382549 -0.26432425 0.22955491 0.35140556
633.85999 5256.23 14159.7 -0.026484355 0.18726797 -0.72401452 0.74830991
653.53003 5258.1401 14148.38 -0.11346734 0.13506126 0.54886413 0.57651383
739.14001 5257.7202 14198.03 -0.13468181 -0.010415494 0.48562753 0.50406528
750.42999 5257.5898 14204 0.0025067683 -0.32173279 0.55004579 0.63723516
804.47998 5253.98 14207.29 -0.096693203 0.517178 -0.80281591 0.95986253
904.78998 5235.9399 14211.12 0.14003479 -0.24454689 -0.22064763 0.35790825
1279.9301 5158.4502 14195.99 -0.14570221 -0.015452564 0.49110124 0.5124923
275.91 5437.9302 14507.35 -0.49396563 -0.16454366 0.41817248 0.66779107
803.69 5269.0498 14211.47 0.050938562 0.37626779 -0.44428238 0.58443052
957.73999 5225.3301 14156.24 -0.10941968 -0.71461165 0.63286424 0.96081197
962.09003 5226.4502 14157.13 -0.24214515 -0.18728352 0.61790442 0.68957615
1177.87 5176.0898 14156.02 0.12240094 0.27608728 -0.40900245 0.50841832
1282.8199 5170.0801 14194.81 -0.11100253 -0.29864359 0.53970325 0.62672895
1286.45 5167.77 14195.33 0.25451607 0.49261498 -0.50754541 0.75169826
1298.1801 5166.2402 14194.81 0.08925546 0.43415713 -0.85212791 0.96051073
1322.98 5151.9502 14192.81 -0.096844003 -0.22847693 0.7399168 0.78042126
348.37 5434.1602 14474.63 -0.010937965 -0.81820148 0.51458317 0.96662772
594.67999 5289.4102 14173.5 0.088058881 0.056619257 0.50988328 0.52052003
609.69 5285.9502 14162.72 -0.1231278 0.072486013 -0.43195385 0.45497122
614.19 5284.8999 14161.32 -0.07236629 -0.67650676 0.14576536 0.69580591
617.46002 5282.0698 14158.92 -0.080190748 0.058386028 -0.42168701 0.43319672
849.42999 5279.9502 14211.39 0.075981081 0.18559545 -0.58502418 0.61844331
716 5284.1001 14160.04 0.092362002 -0.30572298 0.3435688 0.46908081
927.46002 5253.04 14169.16 -0.081436262 -0.36409119 0.26832151 0.45955488
930.78003 5251.2202 14168.01 0.015327752 0.25474685 -0.19156811 0.31910694
968.65997 5242.3599 14144.28 0.14975123 0.28364334 -0.038175017 0.32301131
1005.47 5182.54 14018.73 0.15081738 0.19821811 -0.29099521 0.38303331
1013.62 5182.02 14021.54 0.082580149 0.11022407 -0.57131422 0.58768082
1074.98 5178.7202 14024.71 -0.25270543 -0.05457893 0.49937221 0.56232685
1107.33 5167.52 14021.51 -0.10184693 -0.25920564 0.67778069 0.73276669
1220.3 5187.5601 14159.66 0.045916781 -0.15466774 -0.29821387 0.33906043
1295.84 5188.52 14195.02 0.36774918 0.21686558 -0.40239418 0.58667809
278 5468.7798 14492.5 0.074360356 0.29610056 -0.24807894 0.39338043
330.14001 5461.3301 14476.26 0.05074577 0.19904974 -0.35682395 0.41172716
487.45001 5344.04 14204.46 -0.29795226 -0.50948554 0.71190327 0.92474717
701.34003 5290.25 14142.23 -0.11576033 -0.056337327 0.52843642 0.5438928
937.52002 5268.6401 14161.1 0.33080173 0.41212675 -0.56973684 0.77709609
1058.62 5192.3799 14020.9 0.16635752 0.53962296 -0.7847808 0.966824
1084.0699 5185.0601 14021.67 0.23907369 0.18277562 -0.4095462 0.50822359
1204.78 5204.3198 14140.19 0.27052343 0.14597973 -0.33420229 0.45407507
1207.16 5200.98 14141.21 0.2476266 0.17456479 -0.27678555 0.41036817
338.54999 5469.8501 14472.85 -0.067005008 -0.75833917 0.63627708 0.99217767
355.38 5469.48 14472.59 -0.0021561813 -0.7780118 0.60362446 0.98471797
496.62 5353.8398 14203.66 -0.24778067 -0.5554142 0.62672955 0.87330991
516.53998 5356.29 14215.07 -0.10817777 -0.54894549 0.81135041 0.98556226
576.92999 5334.1099 14168.91 -0.11271954 -0.32347584 0.041426897 0.34504855
648.21997 5273.23 14028.75 0.25542673 0.49567649 -0.67969507 0.87916064
722.02002 5298 14143.21 -0.0076246634 -0.50671268 0.25711465 0.56826383
934.33002 5271.2798 14160.33 0.12802315 0.35368687 -0.51225907 0.6355263
1105.46 5192.7998 14018.84 -0.043784991 -0.51491237 0.50124109 0.71992671
279.09 5490.1201 14486.02 0.088135146 0.23926438 -0.23944576 0.34978497
282.16 5488.4102 14488.21 0.1678852 0.22247659 -0.34589487 0.44421226
310.89999 5483.3799 14474.88 0.074817427 -0.16052473 -0.45475164 0.4880214
420.35001 5444.0898 14405.37 0.12302068 0.34411299 -0.47092146 0.59608293
766.52002 5308.4199 14158.13 -0.0036915652 -0.48574686 0.035541266 0.48705935
864.34998 5317.3901 14198.13 -0.12172834 -0.11972412 -0.45468438 0.4856846
868.42999 5316.7202 14198.13 0.11026873 0.45745891 0.064579099 0.47497192
1023.78 5215.4102 14019.86 0.14449535 0.6915015 -0.67334366 0.97593284
1127.17 5199.2798 14021.23 -0.12861115 -0.63164997 0.75779915 0.99487793
1157.35 5189.3101 14020.76 -0.29551804 -0.46544874 0.74335372 0.9254989
340.04999 5494 14471.8 0.12541598 0.31943366 -0.65574867 0.74011713
356.82999 5491.8701 14468.99 0.19755739 -0.11928901 0.51144731 0.56110346
575.32001 5357.6401 14166.63 -0.12138863 -0.25391477 0.67663985 0.73283654
661.75 5291.0898 14023.11 -0.041215047 -0.21094571 0.77178383 0.80115354
902.76001 5309.0898 14164.5 0.33328682 -0.098613068 -0.73678493 0.81465131
1023.14 5228.0098 14021.74 0.021396838 -0.77830648 0.47616148 0.91266018
1125.25 5209.73 14020.72 -0.0028192177 -0.42966974 0.78776598 0.89732897
1323.54 5216.3701 14161.07 0.19491142 0.043434471 -0.65825546 0.68787879
337.67001 5506.9102 14471.87 -0.11210516 -0.22099057 0.78846991 0.82649213
496.70999 5394.1401 14212.91 -0.282931 -0.17082426 0.54112786 0.63407433
918.65002 5310.1099 14159.89 0.052604951 0.012143791 0.42096263 0.42441052
989.71997 5246.5 14020.54 0.2398528 0.20134754 -0.60555679 0.68173987
1012.99 5240.1099 14019.56 0.00071176887 -0.041032076 0.48894972 0.49066889
1028.8199 5238.3999 14019.05 0.04780028 -0.15961364 -0.31119871 0.35299578
1040.24 5232.8501 14018.67 0.3441464 -0.0023969114 -0.86697483 0.93278497
1063.87 5238.6802 14019.64 -0.033440426 -0.049418807 -0.32861072 0.33398426
1068.26 5237.1001 14019.9 0.28171903 0.69104385 -0.55088365 0.92756671
1185.9301 5206.8999 14021.69 -0.22226922 0.076307029 0.68120039 0.72059715
338.37 5518.3999 14470.79 -0.1303567 -0.28496519 0.44098645 0.54098713
693 5309.3301 14024.44 0.13466907 0.43697384 -0.62569845 0.77497125
890.92999 5332.3198 14166.37 -0.027939588 -0.11258173 0.28338665 0.30620787
907.07001 5331.3701 14160.78 0.30205366 0.33666188 -0.51796544 0.68765241
1066.09 5249.6099 14018.6 -0.29563132 -0.65072507 0.37911674 0.80905533
1070.62 5248.6899 14018.6 -0.15039493 -0.51844805 0.83000815 0.99011141
1171.86 5219.04 14018.36 0.084265396 0.069323301 0.51558989 0.52700979
1328.6801 5236.6401 14154.71 -0.21387008 -0.29966596 -0.0026045442 0.36816692
1332.36 5234.2998 14155.23 0.15876162 0.29446045 -0.647044 0.72840792
321.87 5526.7202 14471.21 0.18009783 0.1584466 -0.19319054 0.30799863
646.94 5330.3501 14023.59 -0.12517244 -0.41104597 -0.078353822 0.43676797
720.96002 5313.0801 14021.61 -0.3633604 -0.30117673 0.53702205 0.71493423
870.28998 5350.71 14162.33 -0.091299906 -0.13571841 -0.2955963 0.33783478
877.42999 5349.29 14165.74 -0.1638169 0.054978818 0.38022572 0.41764846
1063.96 5252 14019.58 0.097193286 -0.071565151 -0.27718711 0.30232567
1099.38 5253.2402 14021.31 0.09236747 0.20260659 -0.86379629 0.89203429
1121.33 5247.6001 14016.75 0.075855732 -0.24163578 0.68170041 0.72722584
246.75 5545.98 14494.76 0.11235659 -0.10981959 0.45859414 0.48476067
258.54001 5547.4302 14487.47 -0.011780113 0.30198523 0.17028677 0.34688824
665.22998 5339.7798 14025.68 0.21038477 -0.10879853 0.42832747 0.48945203
696.40997 5331.4399 14022.41 0.26036021 0.50220507 -0.6403662 0.85443908
739.12 5327.98 14018.33 0.10742737 0.3555522 -0.24266717 0.4436726
876.21997 5361.1802 14161.32 0.23241743 0.53483057 -0.80350161 0.99281234
1019.99 5273.5801 14016.35 0.0032118857 -0.0086290836 0.30218348 0.30232373
1181.4301 5242.8501 14020.13 -0.24852526 -0.59434927 0.47921044 0.80290627
1207.78 5231.0098 14017.38 0.34055388 0.15064487 -0.7187587 0.8094967
1216.12 5235.0498 14018.47 0.23437998 0.26886073 -0.25536072 0.43866748
1219.6801 5232.1499 14019.24 0.30956051 0.22886947 -0.45157266 0.59340268
211.59 5574 14505.78 -0.15804937 -0.63020438 0.23955335 0.69247597
543.21997 5415.48 14163.88 0.15907848 0.41170546 -0.31196886 0.5404923
645.59003 5344.8999 14024.65 0.25463942 0.14238638 -0.30388293 0.42125997
654.33002 5352.6401 14021.29 -0.24497378 -0.23961437 0.77705646 0.84926087
724.12 5336.3198 14022.47 0.12256092 -0.19880289 -0.19288757 0.3029016
770.44 5328.3398 14024.65 0.18732971 -0.037175328 0.34034234 0.39026573
859.46002 5361.9302 14144.07 -0.24011223 -0.36748743 0.066397339 0.44397017
897.03998 5365.7202 14161.51 -0.44515306 -0.39163452 0.77728885 0.97760767
972.94 5302.5 14023.46 0.0017262213 -0.23614806 0.18538254 0.30022588
1037.64 5283.3198 14017.92 -0.069018938 -0.18255061 0.79843056 0.82193655
1042.33 5283.0801 14017.66 -0.1389011 -0.53481746 0.42611334 0.69777924
1109.76 5267.5498 14015.12 0.25413743 0.035087436 -0.83911586 0.87745792
1145.38 5263.77 14016.89 0.350146 0.36373708 -0.53283697 0.73404503
1172.83 5256.3398 14017.4 -0.31098056 -0.1359815 0.756513 0.82916331
1176.6801 5254.6602 14019.32 -0.28485996 -0.37394017 0.51163447 0.69479942
1183.76 5253.2002 14017.66 0.16658404 0.020771474 0.37734205 0.41299963
1199.13 5248.6099 14014.86 -0.15579168 -0.24092919 0.6775555 0.73579848
1248.27 5234.3799 14015.9 0.1878157 -0.13538197 0.2765694 0.36068496
263.79999 5568.5801 14480.87 -0.076421604 0.34974054 -0.4139213 0.54725641
295.73001 5565.0498 14471.75 0.072501607 0.11899784 0.37298894 0.39816794
336.47 5548.3501 14420.05 0.011888966 -0.33950847 0.65165317 0.73488718
452.69 5447.6499 14205.42 -0.08482711 -0.30249852 0.55369532 0.63661569
544.28998 5426.1499 14161.37 0.22752148 0.20892598 -0.50831121 0.59480786
699.59003 5355.7798 14026.05 0.40046483 0.17350268 -0.60229945 0.743801
759.91998 5342.3799 14024.81 0.28619909 -0.20914496 0.45148578 0.57401299
1020.52 5298.1499 14015.19 0.42679918 0.59476268 -0.63326055 0.96794581
1024.4399 5296.6099 14017.2 -0.303633 -0.0062017441 0.80087894 0.85652703
1033.15 5295.3301 14020.26 -0.26239347 -0.24124481 0.7075038 0.79221904
1080.61 5295.0801 14021.7 0.23997445 0.73195672 -0.58549345 0.96754897
1133.21 5280.8799 14019.58 -0.093068257 0.032658398 0.64031917 0.64787102
1144.62 5277.3198 14016.78 -0.31719586 -0.42800424 0.70697284 0.88521832
1190.74 5262.96 14018.34 -0.18702194 -0.2985394 0.62997913 0.72178715
1267.6899 5248.8398 14020.1 0.23199129 0.21650374 -0.24144107 0.39873251
245.02 5579.27 14483.62 0.29077312 -0.61599153 0.66227365 0.95005316
648.78003 5367.0298 14022.58 0.32175359 0.28498623 -0.59304249 0.73242193
657.78003 5376.54 14021.84 -0.010032862 0.4503178 0.0086283386 0.45051217
673.04999 5373.04 14025.68 0.047033757 -0.66003549 0.39869463 0.77253896
724.28003 5360.6299 14022.95 0.13341036 0.72659224 -0.40541407 0.84267145
780.97998 5350.52 14025.48 0.22140202 0.56081957 -0.79734099 0.99964499
797.19 5350.27 14022.95 0.2535077 0.11941107 -0.79115462 0.83931565
977.59998 5325.0601 14021.13 -0.14630289 -0.80713046 0.44368374 0.93258744
1020.46 5314.27 14022.17 0.16882768 0.2443496 -0.70368695 0.76379633
1023.16 5311.8301 14021.29 -0.042466193 -0.05300051 -0.3701992 0.37637731
1073.27 5297.9502 14021.18 0.21514952 0.096710816 -0.22056422 0.32294098
1082.63 5304.96 14017.81 0.045639038 0.5047766 0.082499027 0.513506
1150.37 5286.7002 14017.71 0.21290469 0.11975616 -0.42377532 0.48913747
1185.23 5276.23 14018.75 -0.39988768 -0.15490127 0.5888105 0.72842461
1254.12 5258.8999 14019.27 0.16550407 -0.086328983 0.41730815 0.45715466
1289.6899 5255.9302 14015.44 0.096804127 0.15020531 0.36713508 0.40831465
261.10001 5590.7798 14473.97 -0.054325651 -0.10911706 0.43833044 0.45496306
265.38 5590.46 14475.73 -0.046632871 0.6379925 -0.24431175 0.68476075
288.5 5590.8301 14473.43 0.075012386 0.41275078 -0.27176005 0.49984357
292.76001 5590.0601 14472.03 -0.069204316 0.068826407 -0.47315463 0.48311657
423.67001 5473.3599 14202.97 -0.23096725 -0.65452874 0.51310986 0.86315435
468.70001 5481.0801 14210.05 0.0042016981 0.49274236 0.078221351 0.49893013
527.62 5454.7202 14164.1 0.025856279 -0.1815896 -0.4455601 0.48183724
650.21002 5378.8198 14021.32 0.28521025 0.26154295 -0.34427994 0.5179559
931.47998 5338.54 14022.46 0.1745958 0.70639551 -0.66411883 0.98515594
939.78998 5337.7598 14022.2 -0.11801618 -0.49697679 0.79231012 0.94269246
986.66998 5334.0898 14020.38 -0.07065323 -0.048343748 0.38866773 0.39798442
990.88 5333.9902 14020.12 -0.10013919 0.081915736 0.31668979 0.34209716
1142.37 5303.75 14018.46 0.1878522 0.2664355 -0.14254326 0.35580179
1187.6801 5287.1201 14017.65 -0.032048967 0.17355534 0.38658744 0.42496878
1191.91 5286.9902 14015.73 0.090332955 -0.093350828 0.55724579 0.57218641
1234.22 5273.96 14015.38 -0.16873644 -0.18972 0.70176703 0.74628592
1241.12 5271.5098 14017.29 -0.0024029016 0.36659026 -0.020044416 0.36714569
1296.02 5266.46 14015.83 -0.021007374 0.40337121 -0.66310906 0.77644271
213.75999 5616.8999 14490.8 -0.011827633 0.4445678 -0.30096194 0.53699023
257.32001 5602.0698 14477.93 -0.029309675 -0.02177307 0.50109237 0.50242084
416.92999 5488.9199 14205.31 0.22452311 0.073564738 -0.41274899 0.4755882
421.13 5488.46 14206.98 -0.30094296 -0.079311222 0.60738033 0.68247181
452.67001 5485.5601 14212.06 -0.19868055 -0.74029076 0.61013013 0.97967505
672.88 5396.96 14023.04 0.13459992 0.003048569 0.28852597 0.31839231
754.34003 5380.8701 14023.47 -0.35055503 -0.38650507 0.46092612 0.69622403
922.10999 5351.4902 14021.36 -0.018700004 0.058043301 -0.48994195 0.49372241
945.91998 5348.6001 14022.59 0.0071759 0.10508251 0.54039466 0.55056357
953.96002 5355.1099 14022.78 0.27441996 0.23972344 -0.5538373 0.66295505
1206.6801 5295.6802 14016.12 0.2999562 -0.2922129 0.63655615 0.7619487
1213.87 5292.0698 14015.15 -0.30589363 -0.094664186 0.76139796 0.82598978
1237.15 5286.4399 14018.56 -0.081542343 -0.12496069 -0.29831514 0.33355096
1241.05 5284.8301 14018.82 -0.17538776 -0.2520082 0.53738183 0.61890888
1251.9301 5281.1201 14015.93 -0.0012281574 -0.2649326 0.68352991 0.73307842
1262.4 5277.9302 14016.19 0.24848691 0.11998236 -0.31708413 0.4203378
1315.96 5088.1699 13572.05 -0.068149775 -0.067848712 0.30516699 0.3199605
246.53 5613.79 14480.12 -0.02001258 -0.61232692 0.57205331 0.83820629
290.23001 5613.9302 14469.38 -0.089251287 0.33013925 -0.23139086 0.4129158
417.82999 5500.77 14205.64 -0.14466605 -0.30048835 0.43969184 0.55186087
453.64001 5497.4102 14212.39 0.041929737 -0.75025523 0.32757229 0.81972229
465.75 5496.25 14214.05 -0.19476727 -0.66086942 0.69421411 0.97806746
736.48999 5392.5801 14023.14 -0.29356903 -0.29667956 0.59213138 0.7244454
835.41998 5380.1899 14022.36 -0.021547854 -0.32048351 0.48418567 0.58104199
880 5381.0898 14030.76 0.12308881 -0.29864374 0.8147167 0.87641442
947.87 5359.6001 14021.48 0.044658832 -0.036962658 -0.71886641 0.72120011
951.13 5357.1001 14020.6 0.33073053 0.32136238 -0.51730454 0.69300824
956.34003 5365.48 14020.26 0.35090762 0.26244843 -0.85090071 0.95710367
1080.5699 5331.3599 14017.71 0.48859853 -0.13477564 -0.67752731 0.84613019
1155.34 5324.25 14019.39 -0.094881617 -0.66676331 0.093826979 0.67998481
1243.47 5295.1699 14016.32 -0.41398025 -0.42625687 0.62025702 0.85894895
1321.04 5282.9302 14018.78 -0.53599161 -0.34137449 0.46427423 0.78700322
399.66 5513.4502 14204.47 -0.073640741 -0.18615465 0.79200077 0.81690985
438.76999 5517.2402 14211.71 0.12004969 -0.30633408 -0.094386637 0.34228837
502.73001 5494.1001 14164.48 -0.27404112 -0.6355449 0.64832264 0.94833434
514.14001 5491.1299 14163.61 -0.08256568 0.042388231 0.41001639 0.42038944
618.59003 5417.8599 14024.03 0.13295057 -0.29835862 0.37809932 0.49965271
664.13 5424.1699 14026.05 -0.035694197 -0.53889835 0.10328963 0.54986751
765.53003 5400.3999 14023.51 0.16210045 0.3933053 -0.84836745 0.94904846
1029.65 5359.3301 14019.14 -0.33580539 -0.45746616 0.061737269 0.57083452
1032.36 5356.8398 14018.17 -0.17597757 -0.39156318 -0.045520455 0.43169659
1158.22 5335.0801 14018.36 -0.20797838 0.13456193 0.47374547 0.53459954
1177.9399 5332.1401 14017.83 0.19249317 0.11028554 -0.5785771 0.6196515
1255.1801 5315.2798 14015.82 0.077588543 0.51016468 0.094362795 0.52458775
1304.9399 5300.5098 14016.87 -0.30857593 -0.57827169 0.72223562 0.97531611
198.27 5651.7798 14490.55 0.035836633 -0.25752795 0.70163953 0.74826658
251.84 5636.04 14476.21 0.04740357 -0.46848354 0.77340281 0.90546995
420.20999 5525.0601 14205.9 0.042200711 0.63293803 -0.55249619 0.84121549
423.95001 5525.23 14209.06 0.33639336 0.48801744 -0.69565487 0.91392404
636.79999 5429.4702 14025.27 0.2354877 0.61883688 -0.72812116 0.98416156
656.35999 5425.3799 14022.73 0.28949386 0.08833012 -0.38163319 0.48708603
680.72998 5430.2402 14022.91 -0.038260572 -0.076821923 0.35993922 0.37002936
763.04999 5412.75 14022.21 -0.33211434 -0.039294362 0.73261642 0.80533898
767.17999 5412.04 14023.87 -0.34451693 -0.38406754 0.604729 0.79491949
838.96002 5402.96 14019.93 0.096239835 0.37125894 -0.17051435 0.41972664
936.98999 5385.3599 14022.21 -0.042396054 0.74415517 -0.66016424 0.99568129
951.85999 5382.1699 14020.72 -0.30986625 -0.078146219 0.7816453 0.84444851
1098.48 5361.6299 14019.58 -0.048859254 0.0088599026 0.34545803 0.34900856
1215.16 5330.54 14016.88 0.21607637 0.3800433 -0.86510992 0.96929717
1245.42 5319.54 14016.79 0.053880297 0.28022563 -0.82850671 0.87627214
1252.28 5316.6499 14015.56 0.17277558 0.52705723 -0.44015172 0.70807785
1260.08 5315.4902 14015.3 0.018088415 0.6505084 -0.49307245 0.81646115
1264.45 5315.7402 14016.53 0.079378299 -0.15137246 -0.44970205 0.48108885
136.55 5678.9199 14526.62 -0.095387779 0.80786288 -0.1622937 0.82950616
194.86 5663.02 14486.21 0.066237636 0.044671744 0.42081517 0.42833212
255.64999 5648.3599 14471.34 -0.18757583 0.28352901 -0.18300077 0.38608637
761.47998 5427.98 14024.57 0.38029188 0.12333016 -0.78808153 0.88368815
772.15997 5420.9702 14018.53 0.35465235 -0.15424562 0.52548331 0.65245897
784.09998 5419.1299 14020.19 -0.03900969 -0.25170818 0.3013922 0.39460868
811.37 5416.9399 14022.82 0.065527506 -0.33957252 -0.022733539 0.34658358
828.48999 5417.7402 14021.51 -0.053458661 0.23587707 -0.44903189 0.51002496
957.92999 5392.3599 14021.33 -0.13368936 -0.29992402 -0.025106132 0.32932898
974.31 5391.46 14020.55 0.10294247 0.31530067 -0.20699826 0.39097306
1006.68 5390.2998 14018.7 0.052753344 0.078013688 0.53648078 0.54468405
1010.57 5388.21 14019.23 -0.28266796 -0.4176265 0.34594917 0.61155039
1036.71 5379.3799 14017.49 0.27342242 0.51365924 -0.77108788 0.96601355
1073.9 5377.9102 14020.19 0.26415902 0.18061095 -0.27283385 0.42052186
1110.3 5361.8101 14020.19 -0.10352738 -0.51422417 0.72734874 0.89676124
1163.4399 5359.1201 14021.85 -0.13583018 -0.35724059 -0.07375893 0.38924423
1166 5356.0298 14019.49 0.30962676 0.67989588 -0.62728536 0.97550708
1177.3199 5346.3398 14017.31 0.26408488 0.11484256 -0.32745117 0.43606642
1214.0601 5342.2402 14015.73 -0.066549309 0.50796503 -0.38414124 0.64032942
1234.98 5344.1299 14016.52 -0.034951761 0.30641863 -0.19352448 0.36409575
187.75 5678.2798 14491.82 -0.063017257 -0.14639831 -0.40850109 0.43849376
265 5662.6602 14472.14 0.090113938 0.2718451 -0.18829229 0.34274521
300.85999 5641.1099 14417.68 -0.15106554 -0.23154385 0.2353484 0.36307332
619.72998 5455.6802 14027.35 0.079575375 0.038018227 -0.63291347 0.63902825
623.32001 5454.5898 14027.61 -0.091156445 -0.41425988 0.090755224 0.43377098
684.10999 5452.9702 14022.19 -0.17645088 -0.45794219 0.72888839 0.87870598
732.78998 5443.25 14023.51 0.0504115 0.56145644 -0.46563232 0.73115534
736.48999 5443.1699 14026.57 0.19629192 0.55270994 -0.61492133 0.84979236
739.47998 5441.6602 14023.77 0.250848 0.53956187 -0.54564798 0.80733109
743.53998 5440.3101 14025.69 0.0893296 0.56439722 -0.29782188 0.64437711
763.03998 5439.0898 14023.51 0.34622556 0.50446272 -0.77507001 0.98746562
766.84998 5435.9399 14022.8 0.15044904 0.25773686 -0.83383012 0.88562739
777.53003 5432.5098 14021.93 -0.046138823 -0.27623731 0.66008484 0.71704102
782.40997 5433.1699 14021.41 -0.038420722 -0.15668042 0.83304644 0.84852302
887.5 5423.6699 14020.44 0.035853159 -0.61984527 0.76505983 0.98529702
906.88 5418.2002 14024.64 0.02160506 0.2013045 0.38426578 0.43433914
1204.1801 5355.75 14018.09 -0.39484674 -0.19734451 0.59739232 0.74278289
1220.26 5352.8901 14016.08 0.1600334 -0.0022504032 0.29093426 0.33205196
1311.9 5326.6299 13994.93 -0.078352764 0.12716714 -0.51614213 0.53732049
403.72 5562.0601 14206.77 -0.16446035 -0.62719667 0.74629641 0.98862588
419.98001 5564.3301 14213.57 -0.22230664 -0.15969534 0.7913897 0.83738911
427.34 5562.3999 14214.11 -0.011661634 -0.46863958 0.54789662 0.72107542
582.08002 5469.96 14023.4 -0.0038512945 -0.16988105 -0.47629389 0.50569779
594.59003 5477.7402 14024.78 -0.12477688 -0.35916543 0.090488732 0.39084178
605.5 5470.6699 14023.75 0.22372468 0.63567948 -0.62557042 0.91949958
621.52002 5466.7598 14026.29 0.1813691 -0.03334567 -0.76868987 0.79050028
682.07001 5466.3999 14021.89 0.22287142 0.67631269 -0.24215955 0.75213814
718.28003 5458.1499 14026.63 0.012648553 -0.10814112 0.38545191 0.40053421
754.35999 5457.02 14020.23 0.013410538 0.23637904 -0.22871655 0.32919014
885.32001 5436.5 14022.16 -0.31849933 -0.26785812 0.70283866 0.81680596
1002.67 5414.8398 14021.03 -0.071867347 -0.540263 0.73202741 0.91264075
1006.43 5414.8301 14020.76 0.08113236 0.79453945 -0.30151695 0.85369074
1149 5387.1899 14018.84 -0.19154695 0.00029069185 -0.27046788 0.33142596
1207.02 5368.4102 14019.56 -0.026126809 -0.81401134 0.43068632 0.92129678
1282.72 5358.3101 14018.31 0.32528237 0.3671782 -0.76529753 0.90901524
1314.7 5337.9902 13995.17 0.14183168 -0.2399316 0.27916831 0.39448491
217.27 5694.8501 14473.41 -0.13521299 -0.73725188 0.30860779 0.81059337
417.03 5575.1099 14214.37 0.030119304 -0.53543192 0.62407899 0.82284206
480.19 5558.9302 14166.28 -0.5607596 -0.26830667 0.7749244 0.99345237
569.03003 5492.5 14021.68 -0.31464529 0.10825158 -0.037899345 0.33489764
633.97998 5478.0698 14022.93 0.020183973 0.61223304 -0.65838665 0.89928287
642.15997 5475.21 14022.06 0.17229617 0.4157604 -0.84903002 0.96093422
662.62 5472.6401 14023.72 0.35024354 0.36218548 -0.46675918 0.68681365
794.21002 5455.7798 14023.46 -0.14770937 0.72982526 -0.3260375 0.81287354
892.09003 5448.46 14025.36 -0.20725459 -0.43033633 0.027529061 0.47843668
894.90997 5446.04 14024.4 0.066222489 -0.36484456 0.24301217 0.44334173
1009.1 5426.2998 14021.08 0.055428736 0.50148904 0.077621073 0.51047879
1137.5699 5394.4199 14016.99 -0.17484713 0.23677817 -0.084513605 0.30623189
1209.35 5378.7798 14016.99 0.020612702 -0.33835185 0.38666517 0.51421475
1279.5601 5361.02 14019.18 0.32015306 0.41353118 -0.76395446 0.92581445
413.73999 5588.6699 14214.09 -0.074715763 -0.69524676 0.58917361 0.91437191
533.63 5505.8501 14022.78 0.13717656 -0.29620069 -0.045880884 0.3296321
608.62 5494.0098 14024.37 0.20878379 0.1160049 -0.75242877 0.78942817
852.67999 5460.2202 14023.24 -0.10526149 -0.15401152 0.80886 0.83009279
859.70001 5457.1602 14022.28 0.31154254 0.50771457 -0.46956393 0.75850058
947.32001 5441.6499 14017.83 -0.001737115 0.54351526 -0.53576976 0.7631914
966.47998 5437.4702 14019.75 0.41533104 0.54712582 -0.68095672 0.96723759
971.23999 5446.0498 14017.71 -0.04338932 -0.087111682 -0.37293935 0.3854281
1004.2 5440.54 14020.86 0.10042439 -0.40624374 0.63337207 0.7591306
1006.97 5438.0601 14019.9 -0.10130905 -0.62538326 0.73199481 0.96808267
1153.9 5410.1699 14019.37 -0.081630781 0.021428257 -0.29937544 0.31104407
147.12 5730.0098 14499.88 0.09619724 -0.73918653 0.55719525 0.93065417
194.03999 5719.0498 14475.7 0.039347235 -0.64832616 0.62897092 0.90414572
218.77 5719.6899 14473.48 0.077146903 0.38086706 -0.27235615 0.47454107
271.23001 5690.5601 14421.73 -0.058489576 0.68287194 -0.42041928 0.80404443
582.17999 5506.0098 14025.73 0.089319065 -0.36164191 -0.1423898 0.39879522
719.25 5494.0498 14020.73 0.47703767 0.45291573 -0.61257297 0.89885664
723.20001 5491.5098 14021.52 -0.39994869 -0.59065437 0.53503227 0.89167881
730.40002 5489.2002 14022.05 -0.13083425 -0.55475622 0.79826927 0.98087001
800.48999 5476.8198 14021.45 0.22285013 0.40279847 -0.35961905 0.58415294
837.83002 5475.2998 14019.87 0.0067147464 0.076167911 0.29276589 0.30258638
841.40997 5474.0898 14020.13 -0.082110003 -0.16358939 0.81673789 0.83699721
854.40002 5471.27 14022.05 -0.013515804 -0.44694522 0.8430289 0.95427483
930.96002 5462.29 14019.07 0.29447454 0.13546415 -0.71387905 0.78402114
968.54999 5449.1401 14018.3 -0.10099977 -0.27838111 0.36643058 0.47113517
973.40002 5458.1802 14019.4 -0.23535079 -0.20393552 0.29718262 0.43046162
1006.13 5451 14018.27 -0.2222465 -0.51443064 0.62534815 0.83969796
1045.6 5439.5801 14018.2 0.29676318 0.049645364 -0.37872636 0.48370105
